# .PCD v0.7 - Point Cloud Data file format
VERSION 0.7
FIELDS x y z intensity
SIZE 4 4 4 4
TYPE F F F F
COUNT 1 1 1 1
WIDTH 1138
HEIGHT 1
VIEWPOINT 0 0 0 1 0 0 0
POINTS 1138
DATA ascii
-0.2907089 -5.6239452 -0.53380716 3.0875001
-0.061203808 -5.6035857 -0.40277207 3
0.85077411 -5.6904659 -0.47640529 5.0138888
-0.68730313 -5.528585 -0.45515677 2.5904763
-0.51576924 -5.5409222 -0.45249566 2.6166666
-0.30689305 -5.564538 -0.43107045 2.8666668
0.83940804 -5.5050678 -0.48001429 4.8974357
0.82910699 -5.3036928 -0.4828743 4.561111
0.78911877 -5.1092744 -0.46434936 5.1666665
0.8206026 -5.1051235 -0.48887658 3.5763891
2.1620843 -5.1225286 -0.51144028 4
0.78704613 -4.9063339 -0.4491404 4.9880948
0.81645703 -4.9090605 -0.49582383 4.7743587
0.78378844 -4.719408 -0.46321952 4.1770835
0.81076652 -4.7184052 -0.49827069 3.55
0.77931726 -4.529633 -0.45378596 4.7037034
0.83954626 -4.4290991 -0.50464427 3
0.76764065 -4.3203092 -0.44832242 4.8944445
0.82864189 -4.2878628 -0.47914463 3.125
2.0904851 -4.2219567 -0.46368244 2
0.74778301 -4.0885029 -0.44028726 5.2592592
0.82815909 -4.1450577 -0.46711385 3.375
2.1354473 -4.0465007 -0.42045915 3.2
0.75113136 -3.8806844 -0.43526813 5.0857139
0.85455447 -3.9074602 -0.45035294 3.3333335
2.161756 -3.8977156 -0.42218047 5.25
6.2988539 -3.9701786 -0.52637285 3.3
0.74318707 -3.7247653 -0.42920691 5.0571432
0.91288185 -3.6875083 -0.42358762 3.4545455
1.1293757 -3.6803408 -0.41558707 3.0608976
1.2929995 -3.6664119 -0.4123446 2.8622222
1.4613408 -3.6605487 -0.40738124 2.25
1.7803972 -3.7696984 -0.40641427 2
2.095572 -3.737906 -0.42559564 3.75
2.4602296 -3.6711109 -0.42558789 7.3333335
-0.60771805 -3.4360645 -0.41281116 2
-0.50991994 -3.4254296 -0.41238603 2.9566665
-0.36751425 -3.4355078 -0.42211676 2.3263888
-0.10212475 -3.4409382 -0.41959748 2.1666667
0.049102128 -3.4342835 -0.43273339 2
0.74008501 -3.5044785 -0.4169988 6.4450006
0.90652668 -3.4456701 -0.42314914 3.23125
1.0893626 -3.4676893 -0.42213401 3.074074
1.2918308 -3.5151024 -0.41605243 2.9454546
1.4960102 -3.4727972 -0.42380646 3
1.6816386 -3.424124 -0.41401711 3.0138891
1.8797042 -3.4865413 -0.41587988 1
2.4568193 -3.512696 -0.41021594 8.1999998
-0.52691638 -3.304285 -0.45915899 4.3508329
-0.32499528 -3.3171349 -0.44137916 3.1517646
-0.14093587 -3.3503137 -0.43622297 3.0047619
0.067544639 -3.3346398 -0.42682722 3.6198144
0.29692611 -3.3336248 -0.42048621 3.0109711
0.72496986 -3.2778747 -0.41790032 5.2512627
0.90461826 -3.3288252 -0.42709702 3.3030303
1.1256217 -3.3004696 -0.42211071 3.4359512
1.2772874 -3.2979119 -0.41224983 3.2424223
1.4365138 -3.2842274 -0.41863897 3.25
1.6858392 -3.3497326 -0.41506699 2.9821429
1.8831348 -3.3214421 -0.4101721 2.4895833
2.0960927 -3.3032334 -0.41133925 3.0882354
2.2522838 -3.2470028 -0.40469432 3.079365
2.4909637 -3.337045 -0.40798539 6.1198511
2.7335989 -3.2701414 -0.41967496 4.9152241
2.8826203 -3.2670012 -0.42847645 3.75
3.04936 -3.2541425 -0.4448885 3
3.2778914 -3.3094647 -0.40553612 3
3.5247896 -3.2456312 -0.42602602 2.9166667
5.8887029 -3.2952726 -0.46178395 2.05
-0.64158273 -3.048707 -0.41496307 6.2142859
-0.51433665 -3.068538 -0.438375 4.9248919
-0.30491865 -3.1068394 -0.44338408 3.5500793
-0.10306299 -3.1189024 -0.43956235 4.0189815
0.095934384 -3.1087291 -0.43785149 3.9804022
0.29755533 -3.10906 -0.42792782 3.8751166
0.51007789 -3.0900145 -0.4253225 4.5901704
0.68859845 -3.106107 -0.42300102 5.3717508
0.87175608 -3.0900874 -0.42144307 3.6024806
1.0691415 -3.1373112 -0.42475557 3.6655772
1.2807512 -3.1422901 -0.42346144 3.5709324
1.5176539 -3.1077135 -0.42120308 3.3323412
1.6979399 -3.0985515 -0.41684297 3.2097223
1.8838034 -3.0861228 -0.40848684 3.1701922
2.023994 -3.0266376 -0.40639544 3.625
2.265517 -3.0723681 -0.40827835 3.6307693
2.5127237 -3.0698891 -0.41038173 3.8567429
2.7113528 -3.1079698 -0.42999047 3.5023808
2.9348288 -3.1290376 -0.41969457 3.8030303
3.0983181 -3.0847199 -0.42027128 4.3055553
3.282573 -3.1122508 -0.45876235 3
3.6473885 -3.1283307 -0.40658277 3
5.7207813 -3.0927422 -0.477377 4
5.9380827 -3.182369 -0.43324724 2.75
-0.63528103 -2.9070971 -0.42590246 6.1349735
-0.5390451 -2.890842 -0.451269 4.7908258
-0.31434458 -2.8800671 -0.45545879 3.6116474
-0.12256201 -2.8757646 -0.45244956 3.5069592
0.074405484 -2.8847804 -0.4505375 3.5540671
0.27557832 -2.8783858 -0.44743824 3.6996553
0.50249326 -2.8874152 -0.4357101 4.0088892
0.70399135 -2.9135382 -0.43336007 3.8142545
0.88782614 -2.918751 -0.42246798 3.5538011
1.0985968 -2.884259 -0.42039809 3.4045002
1.2991461 -2.851284 -0.41713825 3.3371878
1.466096 -2.8557546 -0.41486731 3.0888889
1.6766417 -2.8798203 -0.41518402 3.5854027
1.9270222 -2.9647646 -0.41163194 4
2.1037998 -2.9232793 -0.41145486 3.6826625
2.2908065 -2.9313323 -0.40925643 3.7064326
2.5522096 -2.9464095 -0.41465214 3.4768517
2.7066119 -2.9002674 -0.41456914 3.1666667
2.8724501 -2.9316463 -0.40141195 4.0396824
3.1558096 -2.9370389 -0.41878599 3.9285715
3.222213 -2.8642192 -0.44051614 3.5
4.7401419 -2.9521728 -0.40596366 3.5999999
4.8256464 -2.9364464 -0.4127371 3
5.7151051 -2.9761651 -0.46867996 3.5
-0.63991469 -2.6927049 -0.44828856 5.5613842
-0.46861649 -2.6947842 -0.46456611 3.1166668
-0.29165435 -2.6312306 -0.4435336 3.6037879
-0.1158387 -2.645386 -0.43561631 3.8472826
0.067121305 -2.6656597 -0.43877527 3.675792
0.2852996 -2.6862066 -0.44624537 3.3834035
0.49534258 -2.7171311 -0.4355846 3.6442575
0.72347587 -2.6995509 -0.43649596 3.0754619
0.89313245 -2.7035172 -0.43075439 3.8807814
1.0942615 -2.7230873 -0.417245 3.8283832
1.3052664 -2.6964269 -0.41466588 3.8814712
1.4909744 -2.6800406 -0.41359356 3.43629
1.6933734 -2.6718578 -0.40993831 3.3643706
1.8890578 -2.72118 -0.41094622 3.285213
2.0709291 -2.7111654 -0.40681306 3.290102
2.3263874 -2.7215958 -0.40873107 4.1190476
2.4484079 -2.6577408 -0.40220928 4.4518518
2.6317301 -2.6250226 -0.40095106 4
3.1742377 -2.7192469 -0.42879987 2.75
3.5504797 -2.6898904 -0.43625975 3
5.0261512 -2.7006338 -0.4267931 3.5
5.683939 -2.6717818 -0.43726453 2.75
-0.65089971 -2.4826181 -0.4351126 5.5406365
-0.50769585 -2.5195994 -0.44141603 3.9351087
-0.2973018 -2.4951916 -0.4384959 3.6492565
-0.094534621 -2.4957342 -0.4394924 3.4703248
0.092590541 -2.5071008 -0.44340008 3.6516178
0.30438316 -2.5040171 -0.43741652 3.6072159
0.50322044 -2.46296 -0.43491593 3.6149361
0.69097471 -2.4852829 -0.43178239 3.5433793
0.89858162 -2.4835021 -0.42899299 3.3055122
1.1285572 -2.5134809 -0.4243345 3.6185007
1.3156641 -2.4889219 -0.41579932 3.6411312
1.4928186 -2.5022986 -0.41011077 3.5510828
1.6936419 -2.4975252 -0.40980181 3.5109649
1.9089171 -2.5079095 -0.41146788 3.5886385
2.0949185 -2.480566 -0.41422531 3.7133944
2.2678432 -2.4627106 -0.40620986 3.6748512
2.5298574 -2.49209 -0.40706214 3.8119659
3.3553495 -2.593262 -0.41526008 4
3.5505764 -2.5002041 -0.41706204 3.4166665
4.8710642 -2.5321283 -0.40591288 3
5.0725465 -2.5125053 -0.42941818 3.2
5.6639662 -2.4956622 -0.42646262 5.2142859
-0.66393501 -2.2905583 -0.44611675 4.3380976
-0.51827312 -2.303045 -0.45691818 3.9734824
-0.32556376 -2.3099732 -0.46681926 3.6409373
-0.11762059 -2.3346047 -0.45659027 3.3568051
0.092999868 -2.3192003 -0.45684496 3.8865106
0.2964437 -2.3229361 -0.44489586 3.7880297
0.50551689 -2.279212 -0.44392955 4.0921154
0.69146937 -2.3051569 -0.4262554 3.9816184
0.88208109 -2.3044081 -0.42703205 3.5511274
1.0764641 -2.3145783 -0.42158902 3.6176987
1.2655591 -2.2956817 -0.42736664 3.5964439
1.4986407 -2.348475 -0.41836128 3.7278492
1.7001913 -2.3165638 -0.4127948 3.722218
1.8731146 -2.2729175 -0.41078115 3.9140005
2.0879102 -2.2661095 -0.41432261 3.1560807
2.277868 -2.2677999 -0.41404492 3.3794403
2.5227954 -2.2600238 -0.4054749 3.25
2.7163966 -2.31651 -0.40763202 2.47
3.2915323 -2.2811973 -0.41865116 3.2666667
3.4021902 -2.372148 -0.40407559 1
3.6956325 -2.3737316 -0.41354471 2.875
3.8647425 -2.3076563 -0.41830659 3
4.956912 -2.3943536 -0.4042713 3
5.0361171 -2.2915068 -0.41387212 3.5500002
5.654388 -2.3266208 -0.42665935 5
-0.65702015 -2.1029532 -0.43553561 5.0505109
-0.50666916 -2.1199131 -0.44156525 4.3107858
-0.28573468 -2.1061614 -0.44880086 4.4238353
-0.095209807 -2.1013093 -0.44257578 4.2152348
0.10665949 -2.0927942 -0.43911657 3.8484983
0.30920056 -2.0849993 -0.43623936 4.5097375
0.51705992 -2.0581069 -0.43415529 4.330977
0.72676873 -2.0904429 -0.43420058 3.9883254
0.88800669 -2.1323318 -0.43255481 3.9254577
1.0996382 -2.0979021 -0.42699212 3.6033568
1.3041167 -2.0787618 -0.42577124 3.8709166
1.5066469 -2.1124063 -0.4234632 3.6435804
1.7110051 -2.1074774 -0.41193506 3.7967086
1.9163166 -2.1047609 -0.41298673 3.6775594
2.0765193 -2.0609038 -0.4122892 3.5130606
2.3373682 -2.154376 -0.416448 2.7894738
2.5116699 -2.0690176 -0.42256385 2.5625
2.7886345 -2.1765819 -0.4007408 3.6842105
2.9189205 -2.061933 -0.4068827 2.8461537
3.0231261 -2.0664546 -0.40587202 3
3.4820969 -2.0538688 -0.42816857 3
4.4157906 -2.0408781 -0.40247065 3
5.0829725 -2.1300867 -0.42862576 3.6666667
5.6642699 -2.1140864 -0.41134441 5.3333335
-0.66462731 -1.8997893 -0.43902805 5.0190511
-0.47742012 -1.9045174 -0.46184596 4.0601287
-0.30232739 -1.9107664 -0.45147339 4.6091113
-0.11573098 -1.9124324 -0.45325643 4.2835946
0.096356511 -1.8855044 -0.44649586 4.8130565
0.31279722 -1.8945729 -0.44696677 3.8957608
0.50478572 -1.9154811 -0.44209334 3.8348763
0.70364851 -1.9215438 -0.43570626 4.2372556
0.90715855 -1.9086832 -0.4309957 4.0185175
1.1077719 -1.9065037 -0.42769459 4.1998487
1.3269908 -1.8966612 -0.42154291 3.7258766
1.489168 -1.8819932 -0.42179573 3.6748445
1.6942682 -1.9131203 -0.41853067 3.8159988
1.8958848 -1.8973448 -0.41276473 3.8085475
2.1340873 -1.91032 -0.40886822 3.9716048
2.2805233 -1.9094074 -0.40851325 3.6359277
2.450382 -1.8608297 -0.40853909 3.4613094
2.7067204 -1.8667917 -0.41103595 3.0342858
3.0640032 -1.8507329 -0.40170997 3
3.5781546 -1.8674254 -0.40111664 4.7272725
3.6587355 -1.8082964 -0.4002884 3
5.0774498 -1.9918555 -0.42807207 3.25
5.6479683 -1.9515779 -0.40237534 4.6666665
7.7391405 -1.9796312 -0.40530419 6.8571429
-0.65883625 -1.7099253 -0.44370586 5.0538626
-0.48433664 -1.7005337 -0.46353766 4.0108967
-0.30761194 -1.7252678 -0.46556112 4.3876867
-0.087093405 -1.7031651 -0.45553964 4.4191847
0.12089566 -1.7401055 -0.45535126 4.1777778
0.32416326 -1.7053334 -0.44047818 4.1184683
0.49278247 -1.7234136 -0.43999746 4.799181
0.68601966 -1.6874543 -0.43889758 4.730607
0.90581751 -1.6912911 -0.43490189 4.4439573
1.1003226 -1.69479 -0.42875251 4.4009686
1.3090067 -1.690565 -0.42842048 4.078371
1.5179775 -1.6964763 -0.42443725 3.9944031
1.6990325 -1.6820101 -0.41805404 4.1784129
1.9136506 -1.6814384 -0.41815296 4.1866045
2.0858271 -1.6568538 -0.40966824 4.08535
2.2943177 -1.6981043 -0.40427604 3.6616678
2.4848547 -1.7158169 -0.40750504 3.5810184
2.6696877 -1.6718756 -0.41570869 3.5687134
2.8709579 -1.7506914 -0.40505514 3.4835663
3.1094456 -1.7355586 -0.40150607 3.4269841
3.2430182 -1.636178 -0.40366274 4.8387098
3.4118137 -1.6293548 -0.40840468 1
4.5311837 -1.6524055 -0.40453315 3.4495192
5.0770073 -1.6781706 -0.42550552 3
-0.66435295 -1.4931496 -0.43817806 5.6364655
-0.51052511 -1.51208 -0.46645537 4.0868783
-0.28687957 -1.4822006 -0.47717381 4.155345
-0.11264997 -1.5268391 -0.46265766 4.2930164
0.078838386 -1.4994177 -0.45033106 4.0643773
0.31266016 -1.4980426 -0.45098743 4.1336327
0.49592218 -1.5076218 -0.44911578 4.5961781
0.74901247 -1.5376221 -0.43964148 4.8558002
0.90836185 -1.4961711 -0.43487144 4.5174651
1.0743443 -1.4912004 -0.43779793 4.294446
1.2911448 -1.5067464 -0.42940509 4.3833938
1.4964285 -1.489835 -0.43305182 4.4468603
1.6986334 -1.5035287 -0.42141306 4.1481543
1.8751904 -1.503937 -0.4155429 4.0255346
2.1323428 -1.5388048 -0.41402143 4.261343
2.298028 -1.4908338 -0.41285387 4.1746488
2.5163138 -1.4867703 -0.4063938 4.1364112
2.7044454 -1.487498 -0.4096036 3.412966
2.8535531 -1.4594135 -0.40466094 4.125
3.0893352 -1.5032735 -0.40876928 3.3958333
3.3702517 -1.5621699 -0.40287316 5.3125
3.9992595 -1.5665469 -0.40970138 3.5
4.0715151 -1.5041875 -0.41223213 4
4.710115 -1.4615282 -0.41365847 3.060606
5.038908 -1.4955297 -0.42295218 3.0892859
-0.66413438 -1.3277183 -0.42717588 5.5992455
-0.49006024 -1.279501 -0.48120406 4.0029759
-0.33150429 -1.3044074 -0.48347169 3.7301588
-0.070894063 -1.3351972 -0.45990556 3.7012987
0.037898045 -1.3199009 -0.45201251 3.3208332
0.28069007 -1.2930375 -0.45460117 3.8537877
0.4428505 -1.3581214 -0.45007548 2.9655654
0.71551901 -1.3259751 -0.45193231 5.0486012
0.92979515 -1.313555 -0.43996796 4.4194465
1.120363 -1.3264426 -0.43142447 4.6435509
1.2845378 -1.3075922 -0.43311489 4.0227265
1.4995304 -1.316219 -0.42970666 4.1282239
1.6795352 -1.2939131 -0.42303267 4.2820325
1.9048057 -1.293492 -0.41788799 3.956109
2.1052649 -1.2956153 -0.4164753 4.1331401
2.2960649 -1.306816 -0.42183793 4.0080595
2.5038857 -1.2884408 -0.40971744 3.8527548
2.7599871 -1.2956586 -0.41154033 3.125
2.8019762 -1.2823077 -0.42234397 3
3.1401558 -1.344342 -0.40705848 3.3666668
3.2486982 -1.3701565 -0.40905046 4.347826
3.8557339 -1.2348111 -0.41704574 4.2580647
4.1668949 -1.3968946 -0.41353852 3.9230769
4.2587595 -1.2678083 -0.41373882 4
4.7358689 -1.3653796 -0.40981507 1.6666666
4.9252701 -1.2596827 -0.42156869 3.7375
5.0266938 -1.3554901 -0.41881335 3.0833335
-0.65547937 -1.112532 -0.42330948 5.75
-0.16711104 -1.1933823 -0.47689682 4.5
0.13769549 -1.175355 -0.45072088 4.0357141
0.51011324 -1.1667669 -0.45696071 4.0625
0.65996027 -1.1760499 -0.44889134 4.6500001
0.90257716 -1.152617 -0.44547716 3.7222223
1.1259084 -1.1483985 -0.44637156 4.5061727
1.3228786 -1.1257654 -0.42878705 4.408442
1.5216037 -1.1384536 -0.42340729 4.0406346
1.6916778 -1.1429286 -0.42725763 4.0330191
1.8483528 -1.1136714 -0.42619279 4.3390875
2.0886972 -1.1108353 -0.41643712 3.9510655
2.2823231 -1.1251656 -0.41284153 3.8167801
2.4902601 -1.0958352 -0.41149133 3.5551472
2.7131505 -1.1436818 -0.40261799 4.181818
2.8050413 -1.0354595 -0.40096539 7
3.1140828 -1.1078506 -0.40207615 3.125
3.6730671 -1.0814298 -0.42413312 4.48
3.9146557 -1.086129 -0.42165196 5.3214283
4.3723516 -1.1297593 -0.41919973 3.9285715
4.9324317 -1.0733089 -0.41820908 3.7222223
-29.701115 -0.82159615 -0.48454833 106
-0.67223394 -0.8386423 -0.44158235 13.01
-0.46771336 -0.81461453 -0.44356325 4.6666665
-0.28359723 -0.80807602 -0.48445857 5
-0.13086748 -0.81878281 -0.52262169 4
0.067781925 -0.81452489 -0.50506133 5.3333335
0.27165318 -0.80370188 -0.48687768 4.6666665
2.0444453 -0.99203116 -0.40473282 3
2.2669132 -0.98599452 -0.40134242 3
4.9292288 -0.93191862 -0.41371623 5.1888885
-29.729992 -0.69649303 -0.45526588 131.5
-0.67867708 -0.69584531 -0.47074139 17.31485
-0.51056725 -0.73554772 -0.46837434 5.8509731
-0.29873002 -0.74662256 -0.44496527 4.8243632
-0.11618109 -0.73201483 -0.44533494 4.4711227
0.10555752 -0.72578394 -0.43352005 4.5874243
0.29306024 -0.71774167 -0.43551409 4.2238741
0.50782323 -0.6951375 -0.44445306 4.2114067
0.70026177 -0.70324135 -0.43800238 4.7241502
0.88100135 -0.68832242 -0.4379825 4.773819
1.1102611 -0.67813313 -0.43759668 6.4093108
1.2942001 -0.67965281 -0.43306962 6.1285315
1.5176884 -0.65592521 -0.42028829 6.246078
1.7095846 -0.66109252 -0.42543712 5.8457551
1.9153368 -0.64917141 -0.42885181 6.1488762
2.1082585 -0.63362831 -0.43071818 6.8992248
2.3001139 -0.63890558 -0.43120936 7.1325712
2.5007212 -0.63510758 -0.42552474 9.0474062
2.6791096 -0.634812 -0.42790061 5.9213576
2.917711 -0.61342871 -0.41523561 8.1877394
3.1144087 -0.61448592 -0.42153618 6.0684781
-29.738796 -0.56727147 -0.49107283 213.5
-0.695292 -0.50435758 -0.47437757 21.701612
-0.50279844 -0.49385199 -0.51024169 5.0932479
-0.35199127 -0.55028903 -0.49743155 4.8059058
-0.068479344 -0.54158425 -0.48698571 4.3062706
0.15456253 -0.49871519 -0.46566045 3.7288792
0.29653683 -0.50511754 -0.4689731 3.9916008
0.53163677 -0.47212908 -0.46503749 3.8271244
0.71441537 -0.50814342 -0.46211642 3.8583851
0.89767891 -0.50031602 -0.4713746 3.3511965
1.1441567 -0.49149504 -0.46080822 3.5823598
1.2892106 -0.49591112 -0.44863644 3.6246827
1.5009671 -0.50029767 -0.44728312 3.9337671
1.6546288 -0.49981853 -0.43539467 4.8554835
1.8921598 -0.49684086 -0.43625507 3.9617362
2.1209657 -0.49582094 -0.44204697 3.9045546
2.2964694 -0.49252081 -0.4377574 3.7571852
2.5093765 -0.49578628 -0.43708158 4.3935161
2.7040613 -0.50279689 -0.42954576 4.6376152
2.8924561 -0.52734405 -0.4261432 6.7098484
3.1277835 -0.5195933 -0.42013419 8.155426
3.3014538 -0.51685756 -0.42952245 8.1598682
3.4967744 -0.50349611 -0.42085096 6.5082188
3.693079 -0.54070491 -0.42157182 6.8133578
3.8873308 -0.52994615 -0.42519727 6.3918729
4.0873761 -0.50169379 -0.42633429 9.6886215
4.290925 -0.49889722 -0.417501 16.139881
4.4166231 -0.45833954 -0.40857911 4.5367894
4.7394853 -0.48739934 -0.41903776 6.3833337
4.879755 -0.46311322 -0.46392313 10.579167
-29.736618 -0.37478077 -0.49545676 228
-0.7072798 -0.28976205 -0.47372657 23.036333
-0.49303836 -0.32676563 -0.51862407 5.8154969
-0.23139501 -0.30288315 -0.49680912 4.909091
-0.10260151 -0.3062878 -0.48203033 4.9597907
0.10709658 -0.31931293 -0.47849154 5.7443123
0.30352417 -0.30358073 -0.4754799 5.487268
0.51628971 -0.26795146 -0.46275631 5.3075657
0.69126743 -0.34137419 -0.47539267 5.4656959
0.87776709 -0.32250455 -0.45819855 4.0242996
1.0981885 -0.29382309 -0.45878464 3.572005
1.28064 -0.31353623 -0.45064509 3.7519839
1.5005177 -0.30426726 -0.44742933 4.3455815
1.6905184 -0.27722189 -0.43854964 4.684339
1.9019805 -0.29529059 -0.43823156 4.3975348
2.0739241 -0.32220256 -0.44230664 3.7373464
2.2996676 -0.27792898 -0.43914744 3.7770069
2.4662244 -0.29863787 -0.43846661 4.3021321
2.6990836 -0.30793351 -0.43412843 3.9665616
2.8575323 -0.33690104 -0.4359557 3.5448339
3.1145339 -0.30581671 -0.43191609 3.761112
3.2884185 -0.3301059 -0.43744043 3.9303968
3.5108786 -0.30524775 -0.41798696 4.0677037
3.7182395 -0.30406404 -0.42174122 4.1633534
3.9105451 -0.28294677 -0.42151374 3.880151
4.1166148 -0.27056521 -0.43345237 3.8913243
4.3045888 -0.31364062 -0.44043711 4.4503427
4.4905744 -0.27639529 -0.44055557 4.4236765
4.7339849 -0.31611812 -0.4331007 5.3466549
4.8522744 -0.31386077 -0.48045501 7.5819917
-29.74847 -0.15533024 -0.4887099 130.25
-0.72024232 -0.098660573 -0.47241202 24.22216
-0.5091933 -0.11345622 -0.51645559 5.818594
-0.30212826 -0.1339422 -0.49287859 5.2122221
-0.12214202 -0.065213032 -0.48020929 4.7594624
0.069209173 -0.11865902 -0.48576468 5.6581421
0.27243552 -0.090131186 -0.46327266 5.5442433
0.46342093 -0.066308863 -0.46620351 4.8142734
0.65445352 -0.13671613 -0.46412647 5.0435266
0.8908456 -0.10284746 -0.46245489 4.16574
1.0687264 -0.11061195 -0.46612412 3.6470006
1.3471773 -0.079162635 -0.45689866 4.0097518
1.4890466 -0.11228194 -0.44135043 4.0153756
1.6950558 -0.10701814 -0.44068593 4.5416236
1.9174783 -0.10118873 -0.44105715 4.7688818
2.0850863 -0.063163392 -0.44378367 4.5627575
2.3062117 -0.093737982 -0.44151199 3.8075993
2.4996617 -0.10072187 -0.44511557 3.9269872
2.7174263 -0.1263081 -0.43459204 3.8809097
2.8728919 -0.094160624 -0.42438036 3.7401054
3.1156948 -0.094914861 -0.4280194 4.1167059
3.2656538 -0.14010322 -0.42075989 4.068635
3.5272939 -0.085453279 -0.41915882 4.6767669
3.7159204 -0.089431338 -0.42253578 3.9601457
3.8921204 -0.11426675 -0.42266908 4.0193386
4.0658536 -0.10611843 -0.41993386 4.0596766
4.3077812 -0.073432319 -0.42346898 4.3602738
4.5048418 -0.076746017 -0.43881398 4.4315596
4.6797547 -0.09448874 -0.44317633 5.0924478
4.8537884 -0.086444288 -0.41994059 11.934544
-29.769871 0.061114907 -0.48302966 106
-0.80936718 0.16003871 -0.58960187 4.4000001
-0.7285099 0.097115338 -0.47004268 24.56019
-0.50907499 0.1046229 -0.50795674 5.1813641
-0.32968765 0.10754762 -0.50875509 5.1453514
-0.15167275 0.088069737 -0.48791933 4.4736056
0.10162202 0.10890774 -0.48643222 5.4184561
0.29125014 0.1276785 -0.46582413 4.6195083
0.4931322 0.098381311 -0.47031778 5.3697753
0.70550257 0.094702184 -0.48075259 4.6464267
0.90577996 0.10138348 -0.46386793 4.4730821
1.0717951 0.07924211 -0.46739137 4.9020443
1.3341399 0.1199409 -0.44923985 4.5598578
1.4781904 0.051531494 -0.44899583 3.9282067
1.6956766 0.10790659 -0.43915126 4.501317
1.9079951 0.11243742 -0.43899715 4.5709023
2.1101992 0.10552527 -0.446821 4.1352663
2.304867 0.10646998 -0.44542348 3.993134
2.4876342 0.11786491 -0.44269013 3.8012505
2.7141323 0.1153252 -0.44134203 3.5589359
2.9055252 0.096132219 -0.43642035 3.6445003
3.1320386 0.1110161 -0.425657 3.9830415
3.2948544 0.090811305 -0.43166506 4.6458149
3.532886 0.099733308 -0.42357999 4.4003634
3.6879914 0.092901215 -0.42178252 4.4237046
3.9122586 0.13022733 -0.42612261 3.8473096
4.1228075 0.13576995 -0.43698665 5.3111525
4.2725315 0.12225194 -0.43617404 8.6125135
4.4536886 0.09504199 -0.42060718 5.6662736
4.6958671 0.076024547 -0.42924026 5.3783751
4.8434753 0.070456013 -0.46213233 15.86556
-0.74081916 0.30914316 -0.48503259 24.505171
-0.54804218 0.30907863 -0.52189529 5.5035386
-0.33617586 0.27716234 -0.51203573 5.4066668
-0.13749191 0.30827734 -0.50162739 5.6369047
0.079787001 0.28698933 -0.48051134 4.406323
0.23413634 0.28682607 -0.470323 4.5483632
0.49450448 0.29055429 -0.47826582 5.1226077
0.71318579 0.30259678 -0.47065273 4.5910702
0.91682971 0.30365342 -0.46594432 4.6265597
1.0598339 0.28332892 -0.46103272 4.8707013
1.29725 0.28839481 -0.45384717 4.0344133
1.5104109 0.29790753 -0.4532679 3.4458585
1.7186788 0.30061424 -0.44622582 3.9115906
1.8957937 0.29956135 -0.44420126 3.8688257
2.1048431 0.31255549 -0.44747385 3.7375824
2.3102667 0.28562793 -0.44601971 3.7662554
2.5079253 0.31046888 -0.43298185 3.6211307
2.7218895 0.29786652 -0.43974957 3.4881625
2.8872597 0.29789701 -0.43518749 3.5232928
3.117908 0.28825772 -0.42665938 3.5620487
3.2916121 0.2982626 -0.4325009 3.8620441
3.4891245 0.29341164 -0.42864168 4.1580596
3.7087977 0.29637179 -0.4270485 4.4237766
3.9259176 0.30689222 -0.4164151 4.1180897
4.0901275 0.28932035 -0.4232322 4.0600705
4.2889204 0.29318887 -0.41690677 7.2604012
4.5157146 0.30409676 -0.41548648 5.2126827
4.7321091 0.29922751 -0.41885978 5.6700664
4.8353696 0.31041691 -0.42359379 16.823145
-2.0968597 0.53837961 -0.46987936 16.858206
-1.8927696 0.50862408 -0.47715542 11.35
-1.7151502 0.54382926 -0.49744663 7.1666665
-1.5115803 0.50891602 -0.43015462 15.8
-1.3019977 0.53930306 -0.46624413 10.833333
-1.0829895 0.56576979 -0.49710879 21.282053
-0.91937011 0.56179428 -0.50934905 8.522727
-0.73121732 0.48702297 -0.48157734 23.662624
-0.51577193 0.49251065 -0.52097285 5.3981152
-0.30320129 0.50185364 -0.49722806 4.4090276
-0.10165609 0.49454159 -0.48621604 4.1061854
0.11199226 0.48273608 -0.47585008 3.9329388
0.49925041 0.50807071 -0.47487429 4.7584224
0.71876198 0.49434134 -0.47206071 4.6333623
0.90528864 0.50431609 -0.46618789 4.5362887
1.1190364 0.50268954 -0.45863 3.6102595
1.2891833 0.50265002 -0.46130559 3.6914587
1.5087172 0.4867551 -0.45715442 3.4210434
1.6950783 0.49689102 -0.45130438 3.367775
1.9104599 0.49349234 -0.4447802 3.6585875
2.0946548 0.51764756 -0.45193031 3.4116781
2.2890275 0.49295023 -0.44606018 3.6320221
2.4941757 0.51487076 -0.43988639 3.6666353
2.7130032 0.47854754 -0.43735573 3.3631542
2.8947158 0.47203124 -0.43575361 3.4790573
3.1031635 0.47310978 -0.43572435 3.3895798
3.2938464 0.49596587 -0.42926934 3.452745
3.5163972 0.49097842 -0.42034629 3.8338094
3.6883512 0.51393771 -0.42467478 4.350163
3.8861206 0.50738859 -0.42079717 4.3137059
4.1025081 0.48930505 -0.4280735 3.6040342
4.3196044 0.48758343 -0.42054346 4.2518654
4.4853473 0.53460813 -0.42725736 4.6959119
4.7030683 0.52248091 -0.41808352 4.6445994
4.8448267 0.47589311 -0.43010068 15.559481
-2.1014225 0.70152342 -0.46605682 14.026765
-1.9163661 0.71992528 -0.54530662 4.8729167
-1.7125936 0.70627737 -0.5136925 3.3522727
-1.5596066 0.73397434 -0.49984705 3.4285715
-1.2861016 0.74412948 -0.49751252 10.159226
-1.0642191 0.69471741 -0.51199436 13.930516
-0.92991316 0.70302695 -0.51618582 9.502471
-0.67901349 0.72354573 -0.49818787 3.6851549
-0.50089252 0.6988371 -0.4913666 4.2739573
-0.30238292 0.69975156 -0.48859984 3.9317112
-0.080190219 0.73454338 -0.50054038 3.7996366
0.096477732 0.68067896 -0.48330668 3.489284
0.34729683 0.740327 -0.48927668 3.6553574
0.49716574 0.69928592 -0.47384125 3.8370676
0.71434766 0.67893904 -0.47559953 4.3124199
0.9081341 0.71022552 -0.47066239 4.1775694
1.0907536 0.7086637 -0.46056634 3.720355
1.3322194 0.69444054 -0.46582741 3.5981479
1.5154481 0.6878494 -0.4556599 3.7597797
1.7060318 0.70439798 -0.45323324 3.4635012
1.8938152 0.69016463 -0.44720253 3.5318546
2.1123793 0.71634096 -0.45104522 3.4302118
2.2637506 0.67767537 -0.4448511 3.6604803
2.5090363 0.69607061 -0.44309279 3.7612581
2.689805 0.70176828 -0.43251592 3.5169048
2.8962464 0.70302051 -0.44298342 3.5843134
3.0975671 0.69159657 -0.43697491 3.4613357
3.2958004 0.69515932 -0.43054178 3.3390262
3.5083029 0.69826967 -0.4245224 3.4951537
3.7022774 0.71331316 -0.42244959 3.7352011
3.8752947 0.68932486 -0.42063862 3.2891269
4.1103659 0.67810249 -0.41935343 3.5385423
4.3177629 0.71136063 -0.41744384 3.6218665
4.4825401 0.7102384 -0.42307544 5.425066
4.7315106 0.73782068 -0.41590041 5.858191
4.8345962 0.68420833 -0.42601469 18.658186
5.0043669 0.79961693 -0.40498284 5.9230771
-2.1035061 0.89888841 -0.48729697 10.302137
-1.8831869 0.89131373 -0.54171836 3.1349208
-1.7153479 0.89124417 -0.53054541 3.1337688
-1.4366324 0.91937685 -0.51830345 3.2792642
-1.2680548 0.90912849 -0.4991512 7.0376964
-1.1123525 0.877294 -0.47599649 9.3910723
-0.89424318 0.92894125 -0.48091349 8.4525356
-0.71185756 0.91686976 -0.50476402 3.652519
-0.46995655 0.90330791 -0.49015403 3.3078234
-0.28841451 0.88560629 -0.4873434 3.8606122
-0.10447187 0.90166026 -0.50714809 3.9615304
0.08419662 0.87792146 -0.48447609 3.1902802
0.35324433 0.91343403 -0.48903051 3.7602439
0.49024487 0.86964172 -0.47657526 3.3274572
0.72430307 0.89023995 -0.48415172 3.4756153
0.88655388 0.90517199 -0.46805555 3.5347047
1.0858296 0.90509385 -0.46610084 3.3501172
1.3170619 0.89827931 -0.46587351 3.3621836
1.4960376 0.87870771 -0.46264848 3.5614331
1.6948955 0.91325873 -0.45395187 3.3938317
1.8891312 0.89581215 -0.45072898 3.3318956
2.0931368 0.90046364 -0.45123395 3.5453458
2.3070612 0.88160264 -0.44297448 3.4445388
2.4937828 0.89213341 -0.44133765 3.6053824
2.6892328 0.90448201 -0.44268098 3.4221857
2.9045043 0.90356678 -0.43782341 3.5433841
3.1104958 0.89012295 -0.43512306 3.6128433
3.3230209 0.91250217 -0.42764494 3.6307461
3.4997056 0.88652825 -0.42373654 3.4313016
3.7356634 0.90408671 -0.42930019 3.4969826
3.86046 0.89548409 -0.41977945 3.367465
4.100328 0.91677326 -0.41876075 3.5791364
4.3000813 0.89232212 -0.41388753 3.3188486
4.5152946 0.89738846 -0.40489161 3.5018654
4.7157321 0.89607191 -0.41197926 3.9374599
4.8419795 0.94620103 -0.4184629 3.653846
5.12463 0.87691247 -0.43238175 3.625
5.2995205 0.94397837 -0.42407331 2.9814816
5.4897647 0.93220037 -0.41563702 3.3897705
5.6475716 0.94182897 -0.43040386 2.7333333
5.8207083 0.96097386 -0.40026739 3.6428571
6.2906165 0.89190257 -0.40943521 4.7307692
7.23668 0.9808014 -0.41207582 4.9523811
7.763814 0.93985963 -0.4029595 4.4634147
8.0079002 0.85627031 -0.40252408 5.1428571
8.4097672 0.8491801 -0.40075749 9.909091
9.0489044 0.87836254 -0.4144865 4.666667
9.9129448 0.89994347 -0.41627309 5.034091
10.094797 0.96025968 -0.43561709 5
11.453505 0.89069122 -0.43391302 6
11.960468 0.90009117 -0.4816708 13
-29.802517 1.1813861 -0.52045846 99
-2.2006197 1.1501622 -0.40094125 6.1999998
-2.128293 1.0990345 -0.46788296 9.6894798
-1.921201 1.1568816 -0.54765874 5.6371322
-1.7189097 1.124311 -0.5309338 2.9423342
-1.4949745 1.1263307 -0.5240401 3.1503825
-1.2694318 1.1035573 -0.52329588 3.0153787
-1.1041461 1.1351817 -0.51811332 3.3781846
-0.87876904 1.0860664 -0.50310862 5.1339078
-0.71209109 1.1095674 -0.50670302 3.8485231
-0.52515376 1.1086156 -0.49883884 3.3690016
-0.31643748 1.0942781 -0.49153647 3.5165772
-0.10195449 1.086134 -0.50350124 3.026726
0.11159681 1.1096779 -0.48959196 3.3478737
0.32545918 1.0957685 -0.49494943 3.5208843
0.50831169 1.0948863 -0.48109099 3.0978158
0.71691132 1.0976796 -0.48558012 3.6057036
0.915609 1.1149082 -0.47522417 3.1632624
1.1276801 1.1128123 -0.46665317 3.2910888
1.2785385 1.101226 -0.46682695 3.545095
1.5238004 1.1018844 -0.46234772 3.3234415
1.7016972 1.0973067 -0.45882252 3.45105
1.9269142 1.1153104 -0.45230207 3.3429604
2.0652561 1.0997249 -0.45297524 3.2605727
2.2978899 1.0938605 -0.44541079 3.4610996
2.5021901 1.086269 -0.44190562 3.4214642
2.7011673 1.1056367 -0.44260034 3.6813786
2.9089401 1.1043218 -0.43903649 3.5856843
3.0905511 1.0882767 -0.43460661 3.5246294
3.2990808 1.1094451 -0.42673802 3.2671268
3.4883444 1.1028208 -0.42977101 3.4056218
3.7249324 1.1035703 -0.42345566 3.4831729
3.8755827 1.1100341 -0.43065354 3.6485386
4.1196675 1.1272738 -0.41501021 3.7445908
4.2995872 1.1050915 -0.41738212 3.5141375
4.4968314 1.1093925 -0.40685534 3.6313033
4.7012377 1.0917428 -0.41238895 3.4117925
4.8268237 1.0884031 -0.42010903 3.6070175
5.1453228 1.0883849 -0.4299832 3.5530303
5.297215 1.0791969 -0.42094222 3.147768
5.4674454 1.0883318 -0.40486932 3.23
5.6708455 1.0661372 -0.41441432 3.9281044
5.8556547 1.1412038 -0.4048776 6
6.1217365 1.1420585 -0.41945073 3.5719516
6.3733802 1.0166218 -0.41108131 4.5263157
6.4168348 1.1209252 -0.40346643 4.0294118
6.7088094 1.0537622 -0.40200946 4.4761906
7.8988323 1.1221268 -0.40247431 5.25
8.2079411 1.0997472 -0.40984052 4
8.6117668 1.0617363 -0.41394073 4.5833335
9.1893902 1.000754 -0.42622584 4.5789475
10.010885 1.1376944 -0.41507787 4.125
11.552674 1.1306597 -0.43323493 5.590909
11.982378 1.1561248 -0.4002184 23
12.067045 1.1199827 -0.40536758 23
-29.794588 1.2976664 -0.56962621 105
-2.1386669 1.301649 -0.47286588 14.478826
-1.9143034 1.3011397 -0.54305542 4.0971217
-1.6788292 1.299801 -0.53016877 3.6687844
-1.5120658 1.3291388 -0.51586157 4.1848378
-1.2896985 1.3213363 -0.5179112 4.0370226
-1.0979716 1.3072264 -0.52717751 4.1080866
-0.91011798 1.2995834 -0.51975262 4.5225201
-0.69502831 1.3115096 -0.48952353 4.3108716
-0.53161353 1.3047038 -0.50712746 3.6285188
-0.2863071 1.2925069 -0.49843204 3.7287102
-0.10224479 1.3034933 -0.50176513 2.7627807
0.072229758 1.2968321 -0.4649865 15.086736
0.29977554 1.292575 -0.49974489 3.4256198
0.48565364 1.3116415 -0.50627917 3.4070585
0.69390953 1.2935848 -0.48747581 3.2023723
0.90307105 1.3108617 -0.47612718 3.4699585
1.1159942 1.2919537 -0.46614465 3.6310329
1.2781374 1.2919301 -0.47004828 3.6359122
1.520201 1.2988321 -0.46138018 3.6011789
1.7248439 1.3044847 -0.45898044 3.4367225
1.9026599 1.3025349 -0.45513391 3.3639395
2.0944991 1.3104132 -0.45887694 3.3242071
2.3140314 1.2912465 -0.44694623 3.6086419
2.5084474 1.2862293 -0.4449707 3.3660476
2.7072575 1.3130153 -0.4479171 3.3772347
2.9288869 1.3072164 -0.43935496 3.400537
3.1350305 1.3041626 -0.4311974 3.3902547
3.2885447 1.3025773 -0.42718732 3.2678759
3.491046 1.3074743 -0.42878765 3.7809491
3.701498 1.3021059 -0.42509609 3.4757192
3.9141521 1.2993102 -0.42697507 3.7572317
4.1001096 1.3134303 -0.41726512 3.3575826
4.2713137 1.2816451 -0.4140633 3.336781
4.4856062 1.3011138 -0.41236264 3.5338666
4.7082262 1.3012491 -0.41288164 3.1448286
4.8625946 1.306765 -0.41309014 3.8960667
5.1261621 1.3336138 -0.43163824 2.9122808
5.2769365 1.2773659 -0.43249574 3.1428571
5.4613624 1.2989793 -0.40511039 3.257127
5.6865978 1.2866325 -0.40734711 3
6.1492577 1.3512866 -0.4141033 3.6551723
6.2114081 1.3129649 -0.43940386 3
6.4488196 1.2910109 -0.40243438 3.7816765
7.5299568 1.3913479 -0.40511239 4
8.0061226 1.3172257 -0.40110663 4.6285715
8.3135872 1.3095577 -0.40906593 4.1111112
8.6966419 1.3178926 -0.40760115 3.24
9.2655897 1.2919499 -0.41741794 3.772059
10.098523 1.3395371 -0.41614372 3.2727273
11.669698 1.3799932 -0.43537873 3.4545455
24.117388 1.3263435 -0.48047125 50
-29.813881 1.5167277 -0.53812933 34
-29.783295 1.4027138 -0.5383954 93
-2.1392808 1.4960852 -0.48532733 16.167013
-1.8910608 1.4558194 -0.54015619 3.4558752
-1.7091297 1.5053415 -0.51653796 4.1599898
-1.5003558 1.4987267 -0.52457058 4.6768379
-1.2910105 1.4970887 -0.50705469 4.5930653
-1.0847239 1.493237 -0.52014256 4.3057079
-0.90476918 1.4779792 -0.49425125 7.1430225
-0.69711739 1.4741635 -0.48261306 7.0993843
-0.50410396 1.5008359 -0.50573188 2.9170601
-0.27896294 1.5366728 -0.49736816 3.753787
-0.10974944 1.4961745 -0.50334656 3.0218902
0.064391971 1.5388476 -0.48539114 3.4982185
0.30489004 1.4862148 -0.48998347 2.874867
0.45616436 1.5105293 -0.49367407 3.1835897
0.69006491 1.5072207 -0.49521637 3.1102231
0.89414221 1.5088028 -0.47469023 3.4858811
1.1224382 1.4975034 -0.46802908 3.5509682
1.2761068 1.4995829 -0.47027832 3.535264
1.5103606 1.491444 -0.46297175 3.6579499
1.7057782 1.5023334 -0.45883724 3.6343839
1.8866572 1.4884696 -0.45951328 3.6506476
2.0887499 1.5110601 -0.45572752 3.5911114
2.3054006 1.5116572 -0.45128036 3.5789957
2.4845233 1.4770559 -0.44152787 3.5142794
2.6964643 1.5084368 -0.44393101 3.5819371
2.9061012 1.5102768 -0.44108024 3.5532725
3.1109862 1.5052326 -0.4314639 3.4238327
3.2963758 1.4967084 -0.4353525 3.3535905
3.5231657 1.5124265 -0.43104446 3.2973578
3.7026575 1.5041445 -0.42639586 3.6863492
3.911442 1.4825766 -0.42189169 3.6088781
4.1079526 1.4974804 -0.41921759 3.5944688
4.3043318 1.4910928 -0.41029754 3.6356664
4.4803939 1.5084878 -0.41408592 3.4345117
4.6983614 1.5054551 -0.4117184 3.5218494
4.8679686 1.4761117 -0.41158757 3.7660165
5.1164551 1.4945552 -0.42526016 3.2775922
5.2832484 1.4714208 -0.40926245 3.2595236
5.4740925 1.4605635 -0.41037622 4.25
5.7194576 1.4902663 -0.4070614 3
5.8897777 1.4903513 -0.40044302 3.2
6.1777048 1.5296519 -0.41816384 3.8560605
6.2576885 1.4943175 -0.45618528 3.0999999
6.4838085 1.4533949 -0.40346098 3.8031609
7.4877625 1.5474296 -0.40493241 3.5714285
8.098321 1.5046617 -0.40455157 4
8.3897905 1.4852607 -0.41019624 3.8620689
8.7778244 1.5170425 -0.40959597 3.7435064
9.3609905 1.5361333 -0.41941348 3.3245614
11.737074 1.5136734 -0.43726307 3
24.115164 1.4958128 -0.47113001 41.833332
-2.2139204 1.7343575 -0.42636132 13.384921
-2.1436841 1.7011688 -0.48554897 12.633559
-1.921856 1.7071475 -0.54603362 4.0375175
-1.682027 1.699172 -0.52484488 4.4550261
-1.4863203 1.7090672 -0.5169121 4.2974482
-1.3241974 1.7186357 -0.5154953 3.9608226
-1.0740933 1.6865609 -0.51631784 4.2088914
-0.91564322 1.68197 -0.51866585 3.8641965
-0.69155252 1.7001125 -0.50539106 4.0155144
-0.52210999 1.7148751 -0.50177377 3.5195947
-0.30886093 1.7270602 -0.50103527 4.16184
-0.09654931 1.698997 -0.50402623 3.4473498
0.096680433 1.7386655 -0.49233013 3.5613565
0.31459376 1.7157418 -0.48736221 3.3799901
0.49997309 1.6997193 -0.48799828 3.5138543
0.69550669 1.7047374 -0.49023876 3.5289996
0.89840209 1.719048 -0.4783676 3.5204337
1.0842568 1.6909465 -0.46961129 3.8513567
1.2856613 1.693588 -0.47549039 3.510181
1.5157092 1.7086767 -0.46949169 3.7139938
1.6761609 1.6945403 -0.45618531 3.6587875
1.9105301 1.7001904 -0.45250148 3.6535513
2.0939469 1.7147075 -0.45646039 3.9202602
2.2843006 1.6890903 -0.44743657 3.6467869
2.5322435 1.7166383 -0.44835854 3.629832
2.693743 1.7009048 -0.44808805 3.79355
2.8824618 1.7111336 -0.44653177 3.6086333
3.0984135 1.7158592 -0.43640545 3.3999598
3.2911251 1.686546 -0.43386132 3.4035206
3.5243263 1.7184463 -0.43502903 3.3368959
3.6990323 1.7111937 -0.42438212 3.5089839
3.9147372 1.6858627 -0.42580131 3.8127949
4.0892787 1.692297 -0.42251879 3.5999758
4.3023343 1.7035719 -0.41429728 3.537142
4.4895234 1.6970781 -0.41775265 3.6092894
4.676578 1.6763457 -0.41293368 3.3901279
4.877583 1.6999718 -0.41285464 3.5895143
5.127955 1.7063414 -0.41693482 3.7941666
5.2710028 1.7085484 -0.40378827 3.6247535
5.4808521 1.6044518 -0.41590729 3.9230769
5.7575684 1.7024026 -0.40812966 3
5.9175034 1.7057929 -0.403548 3.079365
6.3094597 1.7867329 -0.47322714 3
6.5342879 1.6853485 -0.40524599 3.8038609
7.4243407 1.7406423 -0.40432355 3
8.1493406 1.6301235 -0.4072907 3.5166667
8.459672 1.6796101 -0.41328621 3.6296296
9.4365959 1.7897229 -0.42157286 3.2105262
11.782429 1.6143607 -0.43846965 3
11.851609 1.7720823 -0.4406023 3.4000001
24.144609 1.7228105 -0.53270298 13.45238
-2.4641328 1.9691849 -0.42862248 7
-2.2215524 1.8932759 -0.45278892 6.2982988
-2.1520083 1.9141433 -0.48836023 7.1836929
-1.89389 1.9104521 -0.53327233 3.6298842
-1.7260158 1.9072709 -0.53614509 3.5541968
-1.5229796 1.900465 -0.52257264 3.8278205
-1.3160719 1.8934733 -0.53009665 4.0006909
-1.088984 1.8951821 -0.52045012 3.9967458
-0.89475888 1.9099795 -0.52309108 3.9284232
-0.67805851 1.8930657 -0.508129 4.3001547
-0.48750538 1.8738747 -0.50788826 3.6855602
-0.29769629 1.8757042 -0.50084674 3.7660339
-0.094169579 1.8727938 -0.50066608 3.8917727
0.095485039 1.8857642 -0.49235561 3.8784409
0.29368985 1.8881505 -0.4872402 3.7400396
0.50856054 1.9135494 -0.48590469 3.5307839
0.69542831 1.8946221 -0.48379114 3.7186773
0.90225059 1.8925959 -0.47609138 3.7866096
1.0992595 1.8990725 -0.47257811 3.6982329
1.2967366 1.8965688 -0.46956912 3.6426871
1.4921614 1.8718104 -0.47612169 3.8438501
1.69205 1.9055519 -0.45741707 3.9249957
1.9090753 1.9076786 -0.45753628 3.6466022
2.0890534 1.8920946 -0.45886546 3.6726379
2.289233 1.9187837 -0.45296305 3.7373068
2.490067 1.8896679 -0.45053205 3.6191249
2.6877611 1.9213142 -0.45065293 3.635844
2.9027288 1.9159895 -0.43979618 3.5733464
3.0949423 1.8866345 -0.43839517 3.5444107
3.3040433 1.8984047 -0.43459383 3.5399539
3.5280442 1.9077314 -0.43031442 3.6431389
3.7296896 1.9062392 -0.43377402 3.4794371
3.9072845 1.8936601 -0.42313451 3.5926518
4.0718813 1.9108295 -0.42465755 3.6732152
4.271029 1.896197 -0.4112221 3.3791075
4.5224552 1.9143518 -0.42149532 3.5658481
4.6997004 1.8896092 -0.41016951 3.4619334
4.8768768 1.8930197 -0.42025128 3.7018738
5.0770402 1.9176937 -0.40933275 3.4384191
5.2975774 1.9124802 -0.40725884 3.5029502
5.4610591 1.8929329 -0.42603603 3.8055556
5.783226 1.8971864 -0.40795535 3.0357141
5.9716234 1.8527901 -0.41018385 3.0625
6.1797419 1.8107331 -0.42326957 4.060606
6.31145 1.9509754 -0.47720706 3
6.4985948 1.8615488 -0.40918103 4.5231595
6.8691845 1.8594191 -0.40155578 3.746212
7.3453779 1.9512513 -0.40344399 3
8.5034666 1.8756156 -0.41468811 3.7407408
9.4865637 1.9869083 -0.4241572 3.3333333
11.921506 1.962505 -0.44233358 3.3
24.155161 1.9118719 -0.49728686 11.285714
-2.2174165 2.1065345 -0.46691301 4.5325093
-2.1659844 2.1155698 -0.48393607 5.252212
-1.8934884 2.0733075 -0.54263061 3.700985
-1.6955506 2.0901675 -0.5247339 3.6925042
-1.502875 2.0893245 -0.51687527 3.8630037
-1.3101057 2.0842996 -0.53651524 3.4614036
-1.0660554 2.0851829 -0.52900666 4.3739586
-0.88842261 2.0958622 -0.52933979 3.566649
-0.69369841 2.0859201 -0.50836539 3.766665
-0.48079643 2.0820074 -0.50466043 3.8229985
-0.30155146 2.1093197 -0.4956103 4.0890317
-0.092949606 2.1140397 -0.4952679 3.9235275
0.11481028 2.104872 -0.49229309 3.7968247
0.30617121 2.1116557 -0.48438963 4.0961137
0.49541157 2.0953727 -0.48393628 3.4872205
0.69322443 2.0865819 -0.49571332 3.5891116
0.90725344 2.0966597 -0.48007476 3.8949616
1.108628 2.0898309 -0.47508824 3.7394471
1.2919272 2.1016569 -0.47152406 3.746918
1.4995713 2.1004088 -0.4739961 3.8222387
1.7000691 2.0948424 -0.46555573 3.743046
1.909629 2.0911269 -0.46283823 3.6924989
2.0925908 2.1093423 -0.45870027 3.7826016
2.3046913 2.1045945 -0.45760021 3.6488812
2.4835098 2.1028574 -0.4491967 3.8142197
2.6932354 2.1148694 -0.45122543 3.6465709
2.9055622 2.0957427 -0.44419137 3.4866154
3.1159551 2.1123898 -0.44507614 3.6529148
3.2932239 2.0887787 -0.43116421 3.578793
3.4999406 2.101985 -0.43335536 3.6437924
3.7147286 2.1065819 -0.43068483 3.6458204
3.8996215 2.1034157 -0.42404884 3.7570374
4.1168666 2.0934033 -0.42923266 3.5767548
4.3033957 2.1043301 -0.42152044 3.3747172
4.4926467 2.1093938 -0.42809764 3.5197477
4.7034602 2.0914733 -0.41895905 3.5579667
4.9153872 2.0782573 -0.41191989 3.6165586
5.1043777 2.1015723 -0.41586494 3.4608645
5.3255548 2.1044075 -0.4193362 3.6293862
5.4321203 2.0420973 -0.42996371 3.0999999
5.7683058 2.0393872 -0.40602544 3
5.8774195 2.0306015 -0.41479176 3.2249999
6.1257706 2.1040497 -0.42798844 3.7782259
6.4961848 2.0850754 -0.41017401 3.8500597
6.8274455 2.0550888 -0.40468436 3.3636363
7.1470604 2.1796546 -0.40225303 3.2857144
7.3094473 2.1125455 -0.40430242 3.2
8.5257549 2.0090947 -0.41608346 3.8888888
11.975143 2.1172662 -0.44357318 3.5
24.135576 2.1092973 -0.52238852 18.388889
24.230076 2.0049427 -0.43842471 1
-2.2151103 2.3483016 -0.46103191 4.9509382
-2.1702697 2.2991569 -0.49317744 4.9972119
-1.9025724 2.2993367 -0.5405876 3.5360711
-1.6846578 2.2700403 -0.5324713 3.9387755
-1.4646112 2.3025274 -0.53033817 4.4345236
-1.3124484 2.296684 -0.5253253 4.4374051
-1.0671998 2.2752166 -0.51956695 3.6198425
-0.89726484 2.2994699 -0.53031605 3.8056622
-0.71388626 2.2967451 -0.51562095 3.8285255
-0.52378994 2.2829297 -0.52498257 4.1785927
-0.29331854 2.2813623 -0.50961059 3.5172279
-0.10385127 2.2758908 -0.50532049 4.2616034
0.089022003 2.2753658 -0.49711254 3.7409158
0.2491907 2.2812889 -0.48919168 3.8246629
0.49570149 2.31089 -0.48587376 3.7933459
0.71578819 2.2973335 -0.48817027 3.8550971
0.89258498 2.3008893 -0.47789374 4.02353
1.0793788 2.3006701 -0.46533754 3.8636558
1.2978766 2.2942204 -0.47431293 3.8710456
1.4938395 2.3034503 -0.47981492 3.8858891
1.6871066 2.2985375 -0.46963042 3.6569624
1.8756887 2.3086462 -0.45412853 3.9639077
2.1074471 2.2990756 -0.46084908 3.8436456
2.2958663 2.3017468 -0.46441531 3.7117562
2.4983404 2.3011432 -0.44978827 3.5206614
2.7210286 2.2820706 -0.45196959 3.548244
2.9065478 2.2863674 -0.44968358 3.6592362
3.0924253 2.2813268 -0.44082195 3.5946877
3.3137848 2.3120046 -0.43607572 3.9051068
3.5076668 2.3015792 -0.43356693 4.122046
3.716949 2.3064466 -0.43700197 3.8060341
3.8935385 2.3068025 -0.4288393 3.6505947
4.1102757 2.3041439 -0.42477715 3.5703199
4.2994618 2.3197734 -0.43440279 4.0166993
4.5023036 2.3196688 -0.4189688 3.9503727
4.7087398 2.312891 -0.42573294 3.8790526
4.8935318 2.2986603 -0.41788459 3.6209476
5.0590615 2.2882886 -0.41456649 3.5124817
5.3054128 2.3094504 -0.42409086 3.4774916
5.5028691 2.3061497 -0.41643676 3.1620228
5.6232071 2.299202 -0.40417895 3.6238093
5.9435482 2.3028779 -0.41092855 3.7960525
6.0734529 2.2785058 -0.43139678 3.7781954
6.3026786 2.30639 -0.41328561 3.2045455
6.569509 2.204309 -0.4035742 3.9166667
6.7736182 2.2467871 -0.40857676 3.2173913
7.0895185 2.3263435 -0.40268859 3
7.2299876 2.3270705 -0.40407276 3
24.129433 2.3167646 -0.52444506 19.888887
24.218838 2.200407 -0.43588865 1
-7.1067677 2.4910553 -0.41911542 6
-6.935915 2.5060725 -0.41059497 4.5
-6.3094034 2.5263698 -0.44710237 2
-6.130229 2.5330167 -0.51472622 3.25
-5.9012847 2.5394495 -0.46238309 4.0333333
-5.6841669 2.555099 -0.50223041 3.4000001
-5.4991364 2.5697215 -0.47831231 3.9583335
-5.2957544 2.5746028 -0.47281319 4.3333335
-5.1070375 2.5791051 -0.46977675 4.125
-4.9236426 2.5877533 -0.47930482 3.6666667
-4.70119 2.5924029 -0.49134111 4
-3.3738449 2.5927944 -0.52101022 1
-3.0846455 2.5795 -0.4277423 6
-2.9008546 2.5758207 -0.44594732 4.8000002
-2.7416677 2.555141 -0.44855598 3.75
-2.4982655 2.4881365 -0.42824018 6.75
-2.2191074 2.5391321 -0.4707824 8.9624577
-2.163151 2.4939129 -0.49413744 5.3495741
-1.8922021 2.5268028 -0.55288702 4.3524303
-1.7282226 2.4806142 -0.54626161 3.0713804
-1.4855995 2.496161 -0.55450666 3.8470588
-1.3309184 2.4497206 -0.52620727 4.2678571
-1.112987 2.4696467 -0.52826238 4
-0.8776077 2.5049005 -0.52453917 4.3352571
-0.69596398 2.5081873 -0.51622415 4.0868444
-0.50125241 2.5038645 -0.51222259 4.0685458
-0.31875294 2.5100307 -0.50180721 3.8454945
-0.117174 2.5211339 -0.50485498 3.9696956
0.0884232 2.4973376 -0.50275946 3.9820888
0.29638493 2.503722 -0.4914802 4.11164
0.49186966 2.5004847 -0.48283306 3.7474451
0.70476669 2.4836707 -0.48506671 4.2281704
0.88072622 2.4933972 -0.49387357 4.0606451
1.1099573 2.4812303 -0.47209531 3.7727451
1.3109794 2.5122197 -0.47463322 4.1852093
1.4948162 2.5080075 -0.46761611 4.4828715
1.7031418 2.4951136 -0.4722431 4.2230654
1.9260317 2.5073125 -0.46962076 3.8967242
2.1265984 2.4964881 -0.46439511 4.0191922
2.3109915 2.5108283 -0.46051884 4.0790725
2.5063875 2.502104 -0.45150274 4.0364218
2.6877265 2.5115099 -0.45218101 3.8973181
2.9138916 2.5158751 -0.44637433 3.8933635
3.0988767 2.4930477 -0.44286469 3.8489971
3.3087907 2.5142083 -0.44046411 4.1532793
3.4729307 2.4860482 -0.43435681 4.9645982
3.7012534 2.4880939 -0.44436693 3.6607337
3.8973835 2.4928203 -0.43300584 3.5996723
4.1138616 2.5004196 -0.43758142 4.3531981
4.2976656 2.5003335 -0.43459943 4.2612538
4.4926019 2.4955115 -0.42994642 4.2072062
4.7056627 2.4998584 -0.43472216 3.8572536
4.8892851 2.5039728 -0.4195593 3.7052364
5.1172934 2.5066736 -0.42209467 3.6983643
5.3224087 2.4812331 -0.42912093 3.4256291
5.4888616 2.4934103 -0.41782308 3.5327303
5.6923547 2.5399921 -0.4041582 3.6851852
5.8378639 2.5029216 -0.42998117 3.0789475
6.0585551 2.4868467 -0.41587526 3.8659091
6.264451 2.4700904 -0.43434671 3.2314816
6.6926069 2.4960947 -0.41640648 3.655797
7.0451903 2.5204458 -0.40514529 2
24.119547 2.5178373 -0.49148375 11.145833
-5.4006052 2.6158538 -0.56913811 2
-5.2974563 2.6161938 -0.52345181 2.25
-5.0726848 2.6122768 -0.49164531 2.3333333
-4.860342 2.6228077 -0.48455611 4.5
-4.6760168 2.6176732 -0.51209784 6.0714288
-4.5173674 2.6338677 -0.49768209 2.8277779
-4.2984805 2.6367166 -0.47998098 2.2954545
-4.0928712 2.640976 -0.47004476 1.7916666
-3.9186416 2.6400867 -0.47476155 1.5476191
-3.7050033 2.6330862 -0.46426052 1.5255555
-3.506938 2.6346924 -0.47193795 3.0194445
-3.3112831 2.6297295 -0.4538517 6.8472471
-3.1046517 2.6305814 -0.46709609 6.0256805
-2.9206557 2.6409566 -0.44262099 5.6240911
-2.709322 2.6366563 -0.4496851 7.9748936
-2.5416231 2.6375031 -0.43479732 8.4375
-2.2187426 2.6435621 -0.46910599 12.599387
-2.1154492 2.6771133 -0.47756758 7.8263712
-1.8948381 2.7010019 -0.47885546 6.6423836
-1.693144 2.7083769 -0.47303316 7.2132206
-1.5051779 2.7218492 -0.47174516 7.2612629
-1.3087429 2.7233818 -0.47415769 6.5860653
-1.0967312 2.7396154 -0.46957847 8.1275673
-0.8951475 2.7414312 -0.47916853 7.3633137
-0.70215905 2.7425177 -0.47372931 7.6123543
-0.49696398 2.7545474 -0.46862084 8.6644554
-0.30370942 2.7548361 -0.46609721 8.9612598
-0.10216067 2.7467237 -0.4699564 8.3576994
0.094280772 2.7437906 -0.47354454 8.5328941
0.26745379 2.733685 -0.48121703 7.4974661
0.49355805 2.7393434 -0.4666771 7.6820202
0.66684377 2.7441816 -0.46229804 11.981546
0.89543003 2.6892354 -0.48987696 4.6340981
1.0951349 2.6991038 -0.4771798 4.0949159
1.2900956 2.7043271 -0.46543297 4.6303625
1.5038167 2.7078688 -0.47822753 5.1990166
1.7179805 2.7024803 -0.47322929 4.8431706
1.8856816 2.6813455 -0.48053297 4.7354159
2.0978832 2.7085819 -0.45796549 4.4933743
2.3096874 2.6980863 -0.45773119 3.9809499
2.4920256 2.6840825 -0.45948604 3.6360581
2.706876 2.7024047 -0.45479318 4.3509936
2.889312 2.6935439 -0.44807744 3.7688634
3.1004312 2.6654308 -0.44911784 3.5659006
3.2961769 2.6745405 -0.44256467 4.3694334
3.498256 2.6958718 -0.44498771 5.1555362
3.7111461 2.7161412 -0.45157647 3.72399
3.884208 2.7051046 -0.43693209 3.8347311
4.0916214 2.7041945 -0.43720677 3.5692792
4.2946124 2.7053704 -0.43809211 3.552633
4.5085759 2.7168193 -0.44447276 3.3588724
4.6913352 2.6991837 -0.43233877 3.7049003
4.9157424 2.6980004 -0.4223575 3.6387718
5.0863605 2.7139792 -0.43630821 3.6159179
5.3016748 2.6845224 -0.41860044 3.5707238
5.4878974 2.7030704 -0.41747999 3.4994495
5.7085934 2.6841002 -0.42485571 3.7247143
5.9261069 2.7224123 -0.42841056 3.7656085
6.1028419 2.7040565 -0.43100804 3.6668591
6.5149736 2.7267437 -0.40119666 4.025641
7.1531267 2.744925 -0.40517658 3.5
7.2220502 2.6318388 -0.40365914 3.244318
24.111725 2.6999829 -0.49247608 15.1875
-0.85501671 2.8523352 -0.5469569 7.626667
-0.68987381 2.8526902 -0.51537722 7.6500001
-0.52912283 2.8103909 -0.52217269 3.5
-0.34698629 2.8076935 -0.48171157 5
-0.097633079 2.811789 -0.4515782 6.6333337
0.13016714 2.8148105 -0.46203333 7.2922597
0.30367693 2.8144932 -0.44987464 12.350929
0.5029853 2.8202374 -0.44010642 12.213903
0.72675365 2.8609076 -0.44043142 14.476533
0.90448731 2.8901219 -0.48913729 5.7713933
1.0850952 2.898494 -0.50363106 4.4803309
1.283299 2.9368865 -0.4883281 4.3415585
1.507328 2.8889453 -0.48611373 5.0490561
