# .PCD v0.7 - Point Cloud Data file format
VERSION 0.7
FIELDS x y z intensity
SIZE 4 4 4 4
TYPE F F F F
COUNT 1 1 1 1
WIDTH 1354
HEIGHT 1
VIEWPOINT 0 0 0 1 0 0 0
POINTS 1354
DATA ascii
0.23173559 -3.3855214 -0.42740059 1
0.34707397 -3.3592257 -0.41373745 3
0.74228084 -3.3697965 -0.42510515 3.5
0.88830543 -3.3051519 -0.44136873 3
1.3595626 -3.3911695 -0.40578997 3
1.4044797 -3.3138933 -0.40714511 2
2.1895018 -3.3607812 -0.40372527 3
2.3879409 -3.34323 -0.4085311 3
2.6445289 -3.3151155 -0.41732866 2.5
5.7663603 -3.3433478 -0.49230224 2
-0.63344747 -3.235045 -0.42655742 2.5
-0.59805179 -3.2375026 -0.44856223 3
-0.40418983 -3.2466328 -0.42720959 2
-0.23150921 -3.2078607 -0.46425533 2
0.26360512 -3.2188344 -0.44185412 2.5
0.41301507 -3.2858231 -0.42119521 3
0.6658181 -3.2754474 -0.41688919 4
1.8656168 -3.264545 -0.41150972 1
2.1462352 -3.2924514 -0.40223491 4
2.4399781 -3.2953279 -0.41917065 8
2.6898539 -3.2450283 -0.43553686 2
2.8840749 -3.2399421 -0.42434546 3.5
3.2526426 -3.2806418 -0.40424252 3
3.4867885 -3.2521906 -0.43562001 4
3.5990715 -3.2900486 -0.40196183 3
-0.60921162 -3.158577 -0.43282875 4
-0.44737959 -3.1252134 -0.46989399 2
0.34200501 -3.1852431 -0.42025 7
0.47980118 -3.1212649 -0.41041648 8
0.72574574 -3.1327448 -0.41873354 4
0.90338039 -3.1906862 -0.41400862 4
2.5627143 -3.1129994 -0.4296906 3.5
2.6390462 -3.1632609 -0.41478556 6
2.8513496 -3.1353505 -0.41838199 4
3.0972946 -3.122488 -0.44206554 4
5.8811088 -3.1721499 -0.43294606 2
5.9828424 -3.1626589 -0.43013993 2
-0.62531537 -3.0591595 -0.4278512 6.3333335
0.64780092 -3.0824852 -0.42595372 5
2.695569 -3.0886021 -0.43430167 3
3.7643998 -3.0084739 -0.40293005 6
-0.63759589 -2.9549353 -0.41842103 6
-0.4848752 -2.9851568 -0.45805365 3
0.76383841 -2.9659958 -0.4474411 3
0.84933537 -2.9563215 -0.43372968 3.6666667
0.95839822 -2.9615848 -0.45303848 3
2.2618947 -2.9920449 -0.41551945 3
2.6300321 -2.942554 -0.40715551 4
2.7108035 -2.9571762 -0.43166238 2.5
-0.63707161 -2.8624086 -0.44316578 6.5
-0.57385015 -2.8432283 -0.47993022 5
-0.37981319 -2.849992 -0.46174845 3
0.052495718 -2.8553054 -0.45278776 3
3.132941 -2.8778188 -0.43245965 4
-0.65156841 -2.7286856 -0.43190426 7
0.71647382 -2.7709937 -0.44462585 4
2.3401721 -2.7595921 -0.41964978 3
3.4182978 -2.7518439 -0.40294677 1
5.0429077 -2.7448461 -0.42855057 4
5.6927242 -2.7753735 -0.44955575 2
-0.72005272 -2.6441047 -0.46205649 3.3333333
-0.22117233 -2.6241565 -0.4446128 6
1.3843007 -2.6643891 -0.41944057 1
-0.63925683 -2.5084081 -0.44279572 1
0.033153176 -2.52267 -0.46329239 4
0.62423074 -2.5969236 -0.44100425 3
5.6990156 -2.5932009 -0.4409095 7
-0.69978046 -2.4465489 -0.45052373 7
0.44573796 -2.4339626 -0.41877401 4
3.4870596 -2.4534314 -0.40862811 3
-0.72496057 -2.320019 -0.45541883 3
0.96899152 -2.3418212 -0.42306936 2
1.069846 -2.3818481 -0.43121058 3
1.7253829 -2.3675957 -0.40764558 2
2.2148876 -2.3937993 -0.42774981 2
5.6437769 -2.3928688 -0.43196917 4
0.081936836 -2.2560654 -0.4494265 3
0.8248558 -2.2480059 -0.43975502 1
1.8128662 -2.245636 -0.41582555 3
2.1709874 -2.2555628 -0.41306689 3
3.3474345 -2.2829823 -0.42471638 3
3.85671 -2.2844713 -0.41546589 3
5.6264095 -2.2163515 -0.40591806 2
-0.6540029 -2.1636486 -0.46143138 4
1.1373622 -2.1778455 -0.4398061 1
1.9298787 -2.1334186 -0.40959588 1
2.3273139 -2.1543679 -0.40731892 2
-0.72390652 -2.03966 -0.49751601 4
-0.67635167 -2.0293679 -0.4525159 4
-0.17046833 -2.0561981 -0.45962802 2
0.042345524 -2.0593576 -0.43881348 2
3.0987029 -2.0682545 -0.40707925 1
-0.7476685 -1.9683807 -0.40866137 4
-0.45471168 -1.9677575 -0.4690443 6
0.036180656 -1.93021 -0.43657735 6
0.25702894 -1.9264532 -0.45816511 1.5
0.34641781 -1.995553 -0.40569991 4
0.93700296 -1.9187003 -0.42073169 3
7.6904912 -1.9296601 -0.40039849 7
-0.65770227 -1.8236089 -0.41639769 6
1.0306723 -1.8561726 -0.42560166 4
-0.64213526 -1.7300712 -0.42032775 4
1.5660318 -1.7615331 -0.41612816 3
1.8631953 -1.7367141 -0.41014874 3
-0.72568965 -1.6840261 -0.48494619 4
-0.6212821 -1.6835437 -0.48292285 2
0.26725012 -1.6985765 -0.40397254 6
0.45291513 -1.6239585 -0.43832874 4
0.64459181 -1.6498203 -0.42603582 5
0.81917232 -1.6249319 -0.42809004 6
1.2515526 -1.6858896 -0.40715119 1
1.9726241 -1.6545926 -0.44034353 3
-0.72909343 -1.541312 -0.44194144 6
-0.68745565 -1.5458598 -0.43491745 6
0.05152167 -1.582207 -0.4140875 4
0.21444309 -1.5513155 -0.44201925 1
1.6537589 -1.5255377 -0.42476508 3
1.9508008 -1.5963258 -0.41998228 4
2.1901269 -1.582333 -0.4163506 3
-0.65326691 -1.4781854 -0.43265671 3.5
-0.51286072 -1.4198985 -0.49797654 3
-0.29254806 -1.4609255 -0.47503319 4
0.78442478 -1.426074 -0.43724063 4
0.92309117 -1.4466742 -0.41941446 3
1.1924551 -1.4169018 -0.40946674 3
1.4587146 -1.4849652 -0.42722291 4
1.5953053 -1.4646089 -0.40487784 3
1.6885741 -1.4799906 -0.42402175 4
1.7514175 -1.4522759 -0.41037852 3
1.8860116 -1.4049275 -0.40058953 3
2.5934579 -1.4542311 -0.40883404 3
2.7951236 -1.4116986 -0.42288652 3
-0.68207407 -1.3142871 -0.43492392 4.3333335
-0.41873991 -1.3718814 -0.47897345 3
-0.2628839 -1.3525857 -0.48311627 4
-0.10145545 -1.3061301 -0.43705723 3
0.26076257 -1.31384 -0.4522675 3
1.1263373 -1.3726778 -0.41736972 4
1.3793956 -1.3556355 -0.41453993 4
1.6625781 -1.3595294 -0.43995368 3
1.8662786 -1.3499532 -0.40763482 3
2.3875709 -1.3357415 -0.40766811 4.5
2.5061026 -1.3651158 -0.42312932 4
2.6504636 -1.33179 -0.40852386 2
4.69314 -1.3622376 -0.40616989 1
-0.67742151 -1.2452283 -0.43214548 4
0.83003104 -1.2598214 -0.44054273 3
2.257869 -1.24193 -0.45297089 3
2.3953383 -1.237793 -0.40383977 4
2.4274147 -1.2243894 -0.40660283 3
2.5861402 -1.2462521 -0.41356593 3.5
2.7748132 -1.238458 -0.40227634 3
1.2330767 -1.1625835 -0.42954981 2
1.3026128 -1.1685215 -0.41678399 3
1.5684716 -1.1397041 -0.41219684 3
1.6275681 -1.1371002 -0.42191893 6
1.8196638 -1.1519392 -0.42061114 3
2.0564344 -1.1482816 -0.41721544 3
2.1957204 -1.1729883 -0.40554273 3
2.2830682 -1.1512918 -0.41845834 3
1.1459171 -1.082781 -0.44722265 6
1.3559308 -1.0641005 -0.42779705 6
1.8367777 -1.058748 -0.43080747 6
2.2432537 -1.0218453 -0.41368738 3
2.4379227 -1.0312679 -0.41071287 4
3.3070064 -1.0344617 -0.40105572 8
3.7363329 -1.0245448 -0.4265117 7
-0.70364428 -0.83516169 -0.45572338 9
-0.63389552 -0.80480391 -0.44649321 9
-0.56569672 -0.85337377 -0.43466866 6
-0.71189135 -0.77748966 -0.42150867 19.333334
-0.66359538 -0.77274829 -0.45763606 10.533334
-0.55555576 -0.75622159 -0.47507134 17
-0.44716123 -0.75845647 -0.4409807 7.5
-0.31618619 -0.75766349 -0.44712609 2
-0.2451134 -0.73956573 -0.46950796 3.25
-0.15805189 -0.74721259 -0.44103298 4.6666665
-0.040634483 -0.7349503 -0.44529369 4.5
0.13182062 -0.73420107 -0.46091163 4.5
0.24590611 -0.72393543 -0.4329243 3
0.43389821 -0.71390224 -0.47571802 5
0.55527478 -0.7197538 -0.4387238 4
0.70896971 -0.72077239 -0.46995413 1
0.91624594 -0.711833 -0.43009502 3
1.2841356 -0.70677745 -0.42256939 8
-0.50584507 -0.6742636 -0.48088089 7
-0.37624216 -0.66741925 -0.48917031 4.5
-0.27271557 -0.69380373 -0.48339731 3
-0.10667896 -0.6613766 -0.47930735 3
0.081760883 -0.66350293 -0.46975717 3
0.13157105 -0.64477015 -0.4944213 3
0.25879395 -0.6597349 -0.47785321 2
0.34249783 -0.63045776 -0.49168295 3
0.47444916 -0.60140634 -0.48820519 3
0.64927 -0.66392648 -0.44335669 3
0.83895576 -0.66600502 -0.45796338 2.25
0.96633506 -0.67570645 -0.46090636 3
1.0474812 -0.68063921 -0.43599367 5
1.1531408 -0.6824944 -0.41837007 8
1.2658484 -0.66529036 -0.46103495 4.5
1.3468345 -0.68826121 -0.42074236 5.6666665
1.4496093 -0.68257415 -0.43652344 3
1.5800905 -0.6418587 -0.43796465 4.3333335
1.6118481 -0.68513656 -0.40270382 6
1.7541094 -0.65074205 -0.43077534 3.5
1.8730792 -0.66584229 -0.42238688 7
1.976305 -0.64091349 -0.42235023 4.5
2.1340189 -0.63828588 -0.46222529 6.5
2.2062044 -0.6662581 -0.42521387 7
2.3362007 -0.63340449 -0.47877252 1
2.4914773 -0.67009819 -0.43051535 7
2.6968453 -0.64585006 -0.41122109 7
2.7534161 -0.64848316 -0.41997176 9
3.0193849 -0.62003314 -0.41932058 2
-0.72037768 -0.50838482 -0.43765447 32
-0.68176866 -0.52623987 -0.43123126 35
-0.20787334 -0.59744632 -0.46545443 3
0.16729116 -0.51280022 -0.47424811 4
0.54909265 -0.57756567 -0.49217314 4
0.63669801 -0.55259711 -0.47234029 3
1.0573266 -0.58995378 -0.48182461 3
1.2719021 -0.59893715 -0.48578727 4
1.4199653 -0.52372015 -0.45443475 1
1.5653372 -0.53874445 -0.43659902 4
1.6083463 -0.58540976 -0.45855987 3
1.9421837 -0.53071797 -0.45314032 4
2.0612178 -0.52135766 -0.47334984 2.5
2.3231101 -0.50122535 -0.46714008 4
2.4024704 -0.54868722 -0.45817184 2
2.5832033 -0.56853306 -0.45037305 3
2.696012 -0.56316364 -0.40032578 10
2.7852242 -0.55225432 -0.45230049 2
2.9292738 -0.58338267 -0.42076305 1.5
3.1590822 -0.50459242 -0.41681194 4
3.2556267 -0.55358589 -0.43274596 4.5
3.4100034 -0.54517722 -0.43113512 1
3.5216672 -0.57370532 -0.41870052 8
3.6824884 -0.56034935 -0.41356882 3
3.9267497 -0.59271199 -0.44383588 8
4.012948 -0.54188579 -0.47909555 8
4.3104405 -0.54061079 -0.41697642 8
4.7486696 -0.54796839 -0.41308391 5
4.842258 -0.53320944 -0.41029134 6.5
-0.63096499 -0.40070301 -0.49120671 4
-0.55302238 -0.4573369 -0.47448114 4
0.46944141 -0.46857643 -0.4719733 3
0.58853459 -0.44286737 -0.47584948 7
0.66266203 -0.43396866 -0.47217512 3.5
1.2159178 -0.41218716 -0.45120937 1
1.765861 -0.44998854 -0.44129223 4
2.0711184 -0.46602798 -0.45630434 4
2.3653028 -0.46784317 -0.47366825 3
3.3048017 -0.43196106 -0.43336841 4
3.410862 -0.40227792 -0.41654679 2
4.3929558 -0.45238718 -0.42480808 3
4.7072139 -0.44046366 -0.42173526 7
4.817687 -0.452095 -0.41700828 6
-0.4936409 -0.36151493 -0.49432629 7
0.17441654 -0.37029886 -0.45242909 4
0.37513018 -0.36887503 -0.49580866 6
0.64008904 -0.39302599 -0.46652699 7
0.79245615 -0.36548567 -0.47653985 3
0.87260818 -0.32108521 -0.49668515 4
0.91289186 -0.31287885 -0.47228149 4
1.725975 -0.31108403 -0.41165173 4
2.4962947 -0.38317847 -0.4590809 4
2.6769667 -0.37379432 -0.43359041 3
2.9543924 -0.36168396 -0.46336833 2
3.1458311 -0.38614964 -0.42798215 4
3.3325648 -0.30940568 -0.42216015 3
4.124516 -0.38705558 -0.49487936 4
-0.70009112 -0.23598641 -0.48612273 7
-0.43201256 -0.20970547 -0.48993832 6
-0.23194122 -0.27919292 -0.4820084 6
-0.072356224 -0.28583962 -0.48234531 4
0.05023098 -0.26688141 -0.45529598 6.5
0.17781615 -0.25481009 -0.48177177 4
0.52206182 -0.22574246 -0.47492617 4
1.0923665 -0.24640417 -0.47436467 3
1.1301508 -0.25736177 -0.48670992 4
1.3046832 -0.22616076 -0.43766433 6
1.9988639 -0.27027583 -0.45453733 4
2.3045619 -0.23853552 -0.45999825 4
2.5311975 -0.28188336 -0.4393025 6
3.0810986 -0.21093988 -0.48655733 1
3.6788096 -0.25929177 -0.44396833 2
3.8957295 -0.2779665 -0.44050801 3
4.2021241 -0.261051 -0.47970733 6
4.3674049 -0.27730924 -0.41295815 4
4.7669392 -0.24520804 -0.42769194 7
4.8809848 -0.26252913 -0.40303209 8
0.71961141 -0.18156862 -0.47964036 7
0.8589325 -0.1824173 -0.46034721 3
2.4302864 -0.14279211 -0.45725363 3
2.9787889 -0.14187026 -0.46193647 1
3.4752622 -0.12732893 -0.41719753 6
3.5054145 -0.15348831 -0.41249114 6
3.9280908 -0.14151923 -0.44068882 6
-0.75423574 -0.013151318 -0.47960475 11
-0.084485054 -0.05952096 -0.46865293 6
0.36887574 -0.01548028 -0.45765567 4
0.72276855 -0.087862521 -0.48914871 7
3.0366471 -0.035821915 -0.43481815 7
4.2127051 -0.0047397912 -0.48374799 4
4.5003929 -0.055650234 -0.44054297 4
-0.45587206 0.084285378 -0.49240658 6
-0.2620697 0.046374321 -0.48424986 4
0.024231911 0.050333634 -0.47199151 4
0.59789991 0.073050022 -0.47380421 6
0.8533206 0.027840972 -0.47195444 6
1.6214788 0.056716319 -0.42403686 6
1.91851 0.065554857 -0.45373514 7
2.1839299 0.049159825 -0.41557211 3.5
2.4490075 0.058235407 -0.43248779 4
2.7685792 0.0057696328 -0.42140788 3
2.9304588 0.020960808 -0.45975101 3
4.2180333 0.073365159 -0.40113366 11
4.471005 0.0062850341 -0.42809173 4
4.8635311 0.031165361 -0.40918207 6
-0.72452974 0.12022376 -0.42115855 33
0.46033096 0.12196815 -0.47476101 6
0.99477196 0.11897445 -0.48999819 6
1.2345085 0.1571328 -0.45749334 6.5
1.9463464 0.16092153 -0.49460787 3
2.1595249 0.16313577 -0.49426121 4
2.4321768 0.18063924 -0.41830164 3
2.5414155 0.10347342 -0.45490775 4
2.6729095 0.10786963 -0.48514137 4
2.7029879 0.15773499 -0.46428394 3
2.8676157 0.13802171 -0.45903978 4
3.2038279 0.10346866 -0.43250537 1
3.3608561 0.15123555 -0.42743114 4.5
3.4771073 0.19171536 -0.4008503 3
3.5693223 0.12671797 -0.42464614 4.5
3.6824253 0.13217412 -0.42886305 6
3.7043879 0.10675592 -0.41426605 6
4.0859451 0.16533586 -0.46253362 6
4.1587348 0.19116269 -0.42422694 6
4.2387424 0.14591444 -0.48923826 6
4.3482132 0.18171856 -0.4165985 13
4.559052 0.17705062 -0.40956676 7
4.7002411 0.19534352 -0.40432382 6
-0.7346983 0.21887407 -0.46145287 14
-0.38347816 0.21278167 -0.48148161 7
-0.17104673 0.22671095 -0.48759201 4
0.092727184 0.22257805 -0.49727172 6
0.89790583 0.24839389 -0.47551024 3
1.7267573 0.26719922 -0.41531464 3
1.8877988 0.26462364 -0.41189384 3
2.1380072 0.27107733 -0.47489765 3
2.5730233 0.28713292 -0.4020302 3
2.8100221 0.26771325 -0.45042551 2
3.7947333 0.29362679 -0.42998904 4
4.7346306 0.2357531 -0.43390673 7
0.95376539 0.30909836 -0.45294863 4
1.2746611 0.34736538 -0.4631936 8
2.4231775 0.33534479 -0.45273131 3
3.3458669 0.39368355 -0.41149986 3
3.4455316 0.37212229 -0.45304769 5
4.3114491 0.30683973 -0.41088805 14
4.4071503 0.33130074 -0.43578309 3
4.5115185 0.36303324 -0.41963524 4
-2.0121512 0.45955491 -0.46418548 26
-0.76435584 0.4878405 -0.49075481 34.333332
0.94889975 0.46735263 -0.47331971 6
1.2186108 0.45551592 -0.47632843 6
1.3692069 0.44477522 -0.45225933 3
1.9049977 0.4967126 -0.45139581 4
2.3944988 0.47998869 -0.42316496 3
2.9129467 0.45418215 -0.44521311 2
3.2374251 0.47551131 -0.43639779 3
3.5891671 0.42195916 -0.42080373 2
3.8238499 0.44389212 -0.42319757 4
3.9073801 0.46193063 -0.41395035 4
4.6471357 0.40615892 -0.45597535 6
-2.0539427 0.52085912 -0.43197849 17
-1.063745 0.55673331 -0.49554774 12
-0.89664125 0.54300511 -0.48346853 3
-0.7506932 0.53454018 -0.4389801 37.299999
-0.62805176 0.55026031 -0.4949367 6
-0.56460834 0.57173359 -0.47686255 2
-0.24376392 0.54519314 -0.46836126 2
1.567946 0.57509875 -0.45566273 3
1.7787805 0.51541579 -0.42138696 2
2.0438187 0.54243124 -0.45288515 3.5
3.0522213 0.52241766 -0.42900243 3
3.3053629 0.53825855 -0.47497541 3
3.8833356 0.52707475 -0.41432571 2
4.0094104 0.58292609 -0.40235674 1
4.1109338 0.50959504 -0.45203188 3
4.4576488 0.52729458 -0.4340114 6
-1.0674887 0.60107493 -0.48925534 19
-0.98833859 0.64653111 -0.48616898 16
-0.36592746 0.67535502 -0.46677941 6
0.026912689 0.699018 -0.49987155 2
2.3314707 0.67203176 -0.47972074 4
2.8393583 0.62788701 -0.43694246 3
3.0622222 0.66728723 -0.48858252 3
3.2790756 0.62757349 -0.42356074 3
4.1463389 0.63129741 -0.40887135 2.5
4.2399449 0.66136253 -0.40282482 1
-2.1368265 0.79695702 -0.40060866 3
-1.1508546 0.79900855 -0.45395982 7
-0.80221176 0.77073097 -0.49498767 4
-0.67989635 0.75594437 -0.49755585 6
-0.22847795 0.73467982 -0.47207749 4
-0.15394974 0.76299489 -0.49552447 3
0.4055829 0.73721576 -0.48132196 3
0.51827145 0.72138357 -0.46978122 1
0.65688515 0.73933125 -0.44716418 3
0.76991987 0.79325932 -0.48757198 6.5
1.6094828 0.73991013 -0.40672264 3
2.7671452 0.72490096 -0.43212521 3.5
3.7982981 0.7583493 -0.4592438 4
4.569828 0.74447054 -0.4352541 6
4.6574411 0.76266986 -0.42412612 3
4.7783446 0.77734506 -0.42627171 8
4.8474989 0.74954247 -0.45456433 24
-1.1447458 0.82885051 -0.44602066 9.5555553
-1.0969248 0.88281894 -0.49732497 3
-0.96466064 0.88874745 -0.48839578 4
-0.61799145 0.82808524 -0.47002393 4
-0.55472255 0.82316411 -0.48035645 3
-0.34990811 0.82314271 -0.47644541 4
-0.28437614 0.86760509 -0.48592073 3
-0.16958618 0.86423254 -0.46762037 4
0.37953091 0.86954641 -0.45844352 3
0.78018045 0.80940694 -0.48140797 2
1.2219887 0.81371266 -0.46865666 2
1.3797297 0.88054371 -0.4281975 7
1.5156112 0.89146966 -0.47508663 3
2.769062 0.89256924 -0.44205791 3
2.9786606 0.85419452 -0.44469988 2
3.4732206 0.85281503 -0.44931674 4
3.8679204 0.80854225 -0.42124659 4
4.0926809 0.84881282 -0.40957642 3
4.2328954 0.83010912 -0.45127079 3
4.3658228 0.86650139 -0.40325212 3
4.4313717 0.8247267 -0.4027012 6
4.8335571 0.83708853 -0.42499089 16.666666
5.0503502 0.86411542 -0.42590377 4
5.1337514 0.86437029 -0.42111814 4
5.2532825 0.87300193 -0.40843835 2.5
5.5556688 0.86462736 -0.46640146 1
-1.249401 0.95196599 -0.40411934 31.5
-1.098469 0.90139639 -0.49577993 7
-0.93458462 0.96455127 -0.41713473 20
-0.84940082 0.97339422 -0.46110481 5.4000001
-0.30798745 0.97195804 -0.49754822 3
-0.19091558 0.92125386 -0.46399376 6
1.0525558 0.92778623 -0.45922157 4
1.5965557 0.9906776 -0.45606661 2
1.633091 0.97484702 -0.45500061 2.5
2.0475516 0.92893195 -0.47761673 3
3.053472 0.97984171 -0.42792463 3
3.1290178 0.92973691 -0.43845558 3
5.3845429 0.90238094 -0.42334038 4
5.5364943 0.92706406 -0.4057079 6
5.8120508 0.90707541 -0.40919697 2
9.2342701 0.95663333 -0.4369632 6
10.124858 0.92482686 -0.44154334 4
-1.0372572 1.0908215 -0.49491999 2
-0.90337527 1.0005001 -0.43601066 11
1.5939479 1.0289054 -0.46201229 3
1.6190257 1.055023 -0.46197605 2
2.21313 1.0382954 -0.42872393 3
2.6746407 1.0023229 -0.44832879 3
3.4251571 1.0115209 -0.44959989 1
3.5527475 1.0001483 -0.4001556 4
3.9626405 1.0653126 -0.46342769 3
4.0936971 1.0802195 -0.41290247 1
4.3757877 1.0972552 -0.43334353 1
4.7677736 1.024472 -0.40723819 4
9.3123379 1.0749755 -0.40487251 6
-0.28975344 1.1719127 -0.43265203 10
0.78926849 1.1632214 -0.49844 7
1.2740173 1.1546727 -0.48687726 3
1.8267894 1.1357543 -0.45452037 4
2.1091053 1.1713803 -0.46383405 3
3.1797547 1.1891245 -0.44731075 3
3.314106 1.1755667 -0.42902821 4
4.5519943 1.1636126 -0.41583177 1
4.6187367 1.1319369 -0.40625036 2
4.8466129 1.1654782 -0.41208965 1
5.3198581 1.1281269 -0.4019379 3
9.2525444 1.107703 -0.41012704 4
-0.72182798 1.2105508 -0.49489731 6
0.2245698 1.2070749 -0.49642992 7
0.72408247 1.262786 -0.49163938 3
1.429908 1.2357228 -0.48984271 1
3.4793439 1.2484825 -0.41564682 4
3.7764175 1.2660363 -0.40551084 2
3.8208284 1.2099187 -0.48131704 3
24.09273 1.2388552 -0.40480578 106
-2.1774049 1.3667989 -0.43398857 28
0.82593632 1.3846703 -0.47362092 3
1.8705354 1.3508381 -0.44513527 3
2.040647 1.3878709 -0.45463333 3
2.6673968 1.371918 -0.45229939 4
2.7688217 1.3921536 -0.46454442 3
3.9522138 1.3159441 -0.43525034 3
-1.2752669 1.4916948 -0.48649958 3
-0.90467155 1.4137505 -0.43056768 39
-0.86978054 1.4247465 -0.43727216 15.666667
-0.7198137 1.4366766 -0.4272224 6
-0.67013568 1.4629629 -0.44991204 6
0.27062178 1.4915756 -0.49407375 3
0.88840723 1.4210392 -0.48635682 4
1.1276987 1.4333128 -0.4733167 3
1.7074194 1.4189687 -0.46498132 3
2.0351892 1.4120328 -0.48304677 3
2.1422911 1.4876688 -0.45250553 4
2.5769157 1.48423 -0.42066985 4
2.7509682 1.4752014 -0.47388047 3
2.9450846 1.4043145 -0.45114893 4
3.3031123 1.4674139 -0.40802443 4
3.5337448 1.4995751 -0.43024337 3
-1.0461525 1.5402238 -0.48381037 4.5
-0.87328434 1.547677 -0.4992871 7
-0.30863857 1.512768 -0.48545724 3
1.2391036 1.5480131 -0.48105031 2
1.6567864 1.5575267 -0.47150722 4
1.8534541 1.5385022 -0.48482853 4
2.0005131 1.5851756 -0.48970538 4
2.6268625 1.5198509 -0.45877993 4
2.9356933 1.5355272 -0.44545922 3
3.1894624 1.5259866 -0.45113283 4
3.7469425 1.5611812 -0.42526346 3
3.9836214 1.5286736 -0.4242171 5
4.3043222 1.5057681 -0.41746271 3
4.6810122 1.5443181 -0.4099884 4
-1.0475172 1.6435212 -0.49135086 4
0.86905903 1.6046549 -0.48146966 4
1.1877646 1.6404778 -0.47193831 4
1.2643367 1.6106904 -0.46806878 4
4.3181496 1.6055673 -0.40031976 3
4.4174557 1.663974 -0.42183584 2
4.5156221 1.6803337 -0.41376418 3
4.6520157 1.6308074 -0.40785313 3
8.1760244 1.6959094 -0.40958148 4
-1.2974722 1.7452364 -0.47908002 4
-0.96581066 1.7611438 -0.4961713 4
1.1449599 1.7336206 -0.47436935 6
2.1004946 1.7103428 -0.44842952 4
2.2940092 1.7967238 -0.40416971 3
2.6454878 1.7564464 -0.44342887 4
3.6572075 1.7802315 -0.41126522 4
4.1795912 1.7545866 -0.41877592 3
4.3925848 1.7953831 -0.42710549 3
4.4578524 1.7360451 -0.42080444 4
4.5583053 1.7106376 -0.42883497 3
4.6156301 1.7307822 -0.43008006 3
5.2507915 1.7932916 -0.4033289 4
24.187963 1.7539685 -0.42088136 1
-2.2759781 1.8848763 -0.40234077 6
-2.162632 1.8895429 -0.48108006 19
-1.2064571 1.879712 -0.49847397 6
0.24778461 1.8943398 -0.49355322 3
2.4037273 1.8744167 -0.43487981 3
2.8404582 1.8175589 -0.46865088 4
3.1553421 1.8168685 -0.42297953 3
4.249414 1.8059813 -0.40104559 3
4.4292135 1.8415835 -0.42142904 3
5.1318851 1.8753192 -0.4150129 3
5.3024654 1.8488237 -0.40280479 3
-2.2372179 1.9802246 -0.42484432 2
-0.070745349 1.9715037 -0.49242213 6
1.7164063 1.9037051 -0.47701532 4
2.2366633 1.9444317 -0.41894966 3.5
2.5773158 1.9047518 -0.46141034 3
4.5930557 1.9188644 -0.41688707 3
-0.36755085 2.023598 -0.49392694 6
0.67412853 2.0470226 -0.47076118 3
2.140476 2.0830803 -0.42729673 3
2.2816319 2.0953689 -0.45570692 3
2.4303217 2.0930409 -0.45515406 3
2.9040046 2.0891232 -0.43634683 3
3.0592098 2.0692592 -0.44180256 3
3.1736088 2.0951524 -0.45065957 3
3.4684548 2.0299528 -0.4449538 3
3.5660589 2.071177 -0.43216455 3
4.5739088 2.0819707 -0.41227752 3
5.0706658 2.0654595 -0.41580126 3
5.2906013 2.0174439 -0.47667605 3
5.8052855 2.046104 -0.41530412 3
8.5373526 2.0465662 -0.41803706 3
24.21715 2.0693197 -0.43732667 1
-2.2307234 2.1330011 -0.47586298 1
-0.78327084 2.1767344 -0.49613202 6
0.60488701 2.1181741 -0.48824948 3
1.0491414 2.1466522 -0.46628049 3
1.3853986 2.1519401 -0.48150548 3.5
1.4852591 2.125057 -0.49513662 3
1.6657777 2.117815 -0.47809806 3
1.9246984 2.1143856 -0.49652618 4
2.9242983 2.1761255 -0.44870952 3
3.1481805 2.1643405 -0.45603704 3
3.2330246 2.1510701 -0.44233912 3
3.4687934 2.1959865 -0.4741447 7
3.5573134 2.1800785 -0.44225681 3
4.1986008 2.128715 -0.41189337 3
4.2394414 2.1372547 -0.42102519 3
4.3082504 2.1896276 -0.41655678 3
4.4220538 2.1947675 -0.41490865 3
4.5650868 2.1991019 -0.41911253 3
4.8664608 2.1716328 -0.42106354 3
-2.2453449 2.2344847 -0.46382463 6
-2.1984987 2.2708061 -0.46904609 2
-1.3584062 2.2383509 -0.491 3
0.58498716 2.2114034 -0.48006859 3
1.6291409 2.289768 -0.49542898 2
2.1805301 2.2268653 -0.46615016 3
2.2492313 2.2574399 -0.48293602 3
2.4447942 2.2843747 -0.46096015 3
2.6792789 2.235167 -0.46488094 3
3.1689248 2.2268109 -0.47673723 6
3.3767726 2.2112675 -0.45459908 3
3.9901781 2.2242804 -0.43203223 3
4.0775671 2.2134776 -0.4481858 3
4.1913171 2.2506385 -0.4350614 3
4.3786168 2.2198548 -0.43577915 3
4.4042006 2.2591889 -0.43479341 3
6.5669146 2.2483394 -0.40363336 4
-2.3565464 2.3440261 -0.41805574 4
1.101037 2.3507347 -0.46519512 3
2.3583589 2.396446 -0.45362663 8
3.1991925 2.3776929 -0.45196509 3
3.231503 2.377461 -0.44774306 3
3.7692471 2.3848686 -0.4545185 6
4.2724371 2.374233 -0.47456861 9
4.3761945 2.3839648 -0.44156718 7.6666665
4.6901598 2.3958097 -0.44013202 8
6.0305085 2.3878977 -0.43359745 4
-2.2271643 2.4424887 -0.44138098 9
-2.196506 2.4901323 -0.45247746 9
-0.71725416 2.4897671 -0.49635693 7
0.29853916 2.4828956 -0.49161327 3
0.76287103 2.4065256 -0.49367207 6
1.2846124 2.4692473 -0.49332118 3
1.4366285 2.4735603 -0.49806881 7
1.5201253 2.4041004 -0.48874494 6
2.9285467 2.4023349 -0.4354893 4
3.1126161 2.4622917 -0.417355 6
3.3912625 2.4410522 -0.42548555 8
3.4446957 2.4337265 -0.43529424 7.8571429
3.6623621 2.446346 -0.45027345 4.5
3.9412031 2.4535742 -0.43235505 3
4.0609298 2.4250834 -0.45019275 7
4.5358043 2.4012213 -0.46576482 8
4.8734107 2.425668 -0.41655809 4
6.6436272 2.4958103 -0.40134746 4
7.1743355 2.4341218 -0.40324572 3
-3.3852224 2.5765071 -0.41430363 4
-2.9723172 2.5818145 -0.45191109 4
-2.6269677 2.5848448 -0.44855732 6
-2.2111213 2.5659049 -0.48166478 1
-2.191102 2.5729926 -0.44923407 1
-0.40244985 2.5913393 -0.49671924 2
0.75892353 2.5989804 -0.48102039 4
1.0073369 2.5511389 -0.47956848 1
1.8595595 2.5495217 -0.49212354 1
2.3653126 2.5502257 -0.48182338 6
3.1103244 2.5331802 -0.43041423 3.5
3.2542388 2.5650029 -0.45912141 3
3.3796306 2.5492854 -0.42068243 3
3.6736856 2.5515881 -0.44214129 4
3.7470391 2.5452869 -0.45392799 5
4.1667981 2.5086894 -0.42741066 3
4.3991799 2.5134199 -0.42961723 2
4.5268974 2.5166564 -0.44685942 7.5
4.6007333 2.5571589 -0.41286927 8
6.650631 2.5803821 -0.41778353 4
6.9941735 2.5442216 -0.40312195 2
-4.7624402 2.602905 -0.41630474 4
-4.2441206 2.6456866 -0.49714699 4
-3.5104442 2.603364 -0.43203154 1
-3.4773598 2.6244597 -0.44359508 5.5
-3.2342312 2.6246421 -0.47945836 7
-2.9372566 2.6362209 -0.46887302 3
-2.5372396 2.6279056 -0.42374924 2
-2.2104771 2.6840901 -0.45834264 6.8000002
-1.9195201 2.6925833 -0.40159348 2
-1.4306345 2.6912658 -0.47465634 2
-1.3981791 2.6831477 -0.47074062 7
2.7395501 2.6913533 -0.44954145 6
3.0290563 2.6405172 -0.42385596 3
3.1448488 2.6573865 -0.44312 3.3333333
3.2461309 2.6315179 -0.48181081 3
3.4532127 2.6580613 -0.42839873 7
3.5196786 2.6768017 -0.44528782 8
3.6552463 2.6190667 -0.46563819 1
3.7796865 2.6242654 -0.43364796 4
3.8343544 2.641957 -0.46717173 6
3.9524279 2.6912942 -0.45718786 1
4.4233046 2.684263 -0.43744704 4
5.3793306 2.6926851 -0.40547794 3
-2.2048578 2.708179 -0.45344353 4
-2.1752536 2.7132978 -0.45540738 5.1666665
-1.9178215 2.714783 -0.4262982 4
-1.7278261 2.7348385 -0.43463391 4.5
-1.6456628 2.750237 -0.42704049 4.5
-1.5136172 2.7628865 -0.43008631 6
-1.4508673 2.7503974 -0.42597726 4
-1.3525448 2.7274618 -0.4084236 2.5
-1.2416335 2.7466004 -0.44690967 3.3333333
-1.1088532 2.7586098 -0.48495829 2
-1.0753617 2.7995541 -0.46281302 7
-0.98648453 2.764205 -0.48891956 6
-0.7178998 2.794158 -0.47533005 7
-0.47390032 2.76597 -0.45283985 5.5
-0.34267941 2.7706621 -0.47999001 4.8333335
-0.26141119 2.7416615 -0.45697248 4.75
-0.193295 2.7245538 -0.4874295 4
0.49980426 2.7334309 -0.45660067 7
0.59010148 2.7565782 -0.47226226 6.3333335
0.63286823 2.7360475 -0.44982085 12.2
0.7794075 2.7050142 -0.48405254 6
0.83564526 2.7828517 -0.49583206 7
1.0588453 2.7718596 -0.48591882 7
1.1085577 2.7118564 -0.48514768 2
1.340386 2.7410331 -0.49388897 4
1.429244 2.7016172 -0.47257012 5
1.6642466 2.775465 -0.49843699 7
1.7878785 2.7913623 -0.48187664 6
2.619319 2.7065187 -0.4935745 3
2.8918693 2.7268353 -0.49579892 3
3.3569527 2.7365434 -0.48612601 7
3.482471 2.7085307 -0.41927814 8
3.7186878 2.7277694 -0.43834937 3
3.8388114 2.7877703 -0.46665701 3
3.9502349 2.7836013 -0.42549285 3
4.1930161 2.7454863 -0.46105063 1
5.3356271 2.7302785 -0.41797513 3.5
-0.90751421 2.8050458 -0.48627868 7
-0.64266098 2.821656 -0.44792709 6
-0.28993154 2.8153312 -0.46022671 6
-0.033811808 2.8047662 -0.4223991 2
0.067897707 2.8248262 -0.44817519 8.25
0.17550659 2.8091285 -0.40547192 2
0.25526106 2.835681 -0.4830471 2.5
0.31478429 2.8197899 -0.47246546 1
0.46939898 2.8560886 -0.42497799 6
0.56778276 2.8426406 -0.45623767 8
0.64526659 2.8307323 -0.42848182 5.5
0.77344358 2.8441019 -0.44222254 13.230769
0.83359861 2.8383009 -0.44339022 12
1.8460207 2.84918 -0.47975647 4
1.9539509 2.8130062 -0.46425849 1
2.0751886 2.8891177 -0.49225146 3
3.037859 2.8488274 -0.42929965 4.5
3.2554824 2.8522758 -0.40623194 3
3.3077867 2.8329825 -0.48506689 2
3.4076576 2.8727486 -0.48847866 3.5
3.5979848 2.8265648 -0.4102028 2
4.0094953 2.8014045 -0.42496088 4
5.7435346 2.8478596 -0.40216854 4
6.1039982 2.8025637 -0.43582949 3
0.77194405 2.9473276 -0.45257369 6.5
1.2186155 2.9124916 -0.48544201 4
1.4459462 2.9712803 -0.46666574 9
1.5090642 2.9323602 -0.45013836 3
1.6796384 2.9299865 -0.4858813 1
2.3794291 2.9991679 -0.48699147 6
2.5090914 2.9284935 -0.49153614 3
2.7875497 2.9467211 -0.47332504 4
2.8832629 2.949544 -0.4410165 3.5
3.0512204 2.9402556 -0.4489325 7.5
3.1403649 2.9470155 -0.42294562 11
3.2552443 2.9479868 -0.44941658 6.75
3.3431499 2.9562092 -0.45534936 6
3.4362442 2.9414902 -0.44463068 5
3.5539169 2.9528463 -0.45881119 6.6666665
3.7644858 2.9555299 -0.4508093 6
3.9543667 2.907217 -0.45848799 4
4.3176417 2.9680121 -0.44435287 3
4.4657979 2.9939084 -0.47125316 6
5.2963853 2.9163461 -0.41429651 4
5.3442874 2.9087784 -0.45583504 2
5.4463634 2.9375947 -0.44395629 10.5
8.0017672 2.9363511 -0.40751529 3
0.75703311 3.0475824 -0.48113841 7
1.6318731 3.0540471 -0.44791311 4
1.7476414 3.0252192 -0.45858383 5.5
1.9729259 3.0114093 -0.49854735 3
2.2663503 3.0650096 -0.49270386 6
2.436439 3.0500221 -0.49402523 4.5
2.8657603 3.0525768 -0.41854924 3
2.9667885 3.0835011 -0.45632938 5
3.0479932 3.0349827 -0.44662869 5
4.0907431 3.0028491 -0.41814885 6
4.3952537 3.0162239 -0.40031517 4
4.9032497 3.0401645 -0.41439551 7
5.1628876 3.035646 -0.41817492 7
5.448842 3.0791771 -0.41301969 4
5.8538351 3.0961223 -0.40577656 4
6.0780373 3.0642819 -0.40288529 4
6.2061729 3.0022917 -0.44029471 8
8.8115273 3.0380778 -0.40602529 4
10.150635 3.0889239 -0.41311568 4
0.77550983 3.1492088 -0.43494385 11.2
0.88890934 3.1327538 -0.49229145 6
1.3505946 3.1942656 -0.49069244 7
1.8506759 3.1670837 -0.44086257 19.5
2.0864916 3.1724458 -0.44534069 23
2.2548826 3.1052475 -0.49236056 3
2.4403467 3.1513705 -0.48299322 3
2.5472589 3.1887348 -0.47786346 6
3.1075196 3.1502392 -0.46059722 7
6.1566916 3.1741748 -0.43187872 6
8.0492134 3.1727839 -0.40503997 3
8.7139244 3.1667526 -0.40225819 4
9.2872295 3.1064835 -0.41924667 4
9.6085482 3.1850462 -0.41288418 6
10.0058 3.1798987 -0.40090883 3
0.79017991 3.2238464 -0.44660926 32
0.83003491 3.24173 -0.47135034 21.666666
1.1510589 3.2832384 -0.48088282 4
1.261789 3.2356102 -0.4595305 14.333333
1.476567 3.2926331 -0.47159368 8
1.5560422 3.263679 -0.466344 8.5
1.6126146 3.263715 -0.46868342 9
2.080775 3.2113099 -0.43947124 10
2.1857033 3.2181013 -0.47490793 2
2.2060666 3.2290397 -0.45274726 15.8
2.3226526 3.2183204 -0.49461737 3
2.4851172 3.2416141 -0.43358147 1
2.9971967 3.2225811 -0.45730066 6
3.0756578 3.2237487 -0.45064211 7
3.1315002 3.2897954 -0.41529015 48
6.286202 3.2092571 -0.40000385 3
6.882102 3.2115173 -0.42192999 4
11.0038 3.2009242 -0.40215707 3
11.22949 3.295136 -0.40890145 4
1.5799992 3.3147652 -0.41467577 11
2.2262568 3.3215148 -0.43865776 25.333334
2.597621 3.3485522 -0.40301257 9
3.122134 3.3195434 -0.42824817 36
8.1966925 3.3741665 -0.43992969 7
8.3608217 3.3829889 -0.44498268 8
9.3442812 3.3225019 -0.4208976 4
6.3627944 3.4773526 -0.4016346 1
6.6815267 3.472533 -0.41922903 1
12.163438 3.4269671 -0.40315098 3
7.8332834 3.5861757 -0.40704548 4
8.0427208 3.555958 -0.43627909 5.5
8.2649307 3.501554 -0.42485017 7
8.41887 3.5846598 -0.44351137 7
6.1512671 3.6320651 -0.43592364 1.5
7.9494123 3.6408679 -0.43089139 6
8.0542965 3.649888 -0.40048832 6
8.289916 3.6134937 -0.43620896 6.3333335
6.1248693 3.7387376 -0.42126369 7
6.2469544 3.7230606 -0.44657236 6
7.7413235 3.7541466 -0.41699511 6
7.9497652 3.7978728 -0.44583821 7
8.1511955 3.7804563 -0.42343998 5
8.2953587 3.7799766 -0.42045057 6
8.3337469 3.7531416 -0.42764491 6
6.2150431 3.8387616 -0.43807709 1
6.1265769 3.9643807 -0.41419387 4
6.2446404 3.9182894 -0.43102032 3
8.0901051 3.9002943 -0.41078267 4
8.1982536 3.9374197 -0.43405434 6
8.3000746 4.0382824 -0.46342143 7
6.1124797 4.1865053 -0.42837042 7
6.2960548 4.1249809 -0.44923115 4
8.161973 4.1537476 -0.45488453 5.5
8.2676573 4.1266394 -0.42366481 7
6.1561546 4.2859187 -0.46651715 4
6.242568 4.2103519 -0.44545019 4
6.5151892 4.2882929 -0.43224519 3
8.2304296 4.2087021 -0.41095233 6
8.3083906 4.2136474 -0.43185553 8
8.440691 4.2082062 -0.49180952 1
6.1404295 4.3193173 -0.4578284 5.5
6.3964729 4.3286419 -0.48493272 6
8.0778761 4.369132 -0.46505567 6
8.2431211 4.3337727 -0.43872324 6
8.3143616 4.3321018 -0.40120909 6
6.0854492 4.4631276 -0.40619993 2
6.1847548 4.4965773 -0.47904378 2
6.3087397 4.4188542 -0.42595297 6
6.9764147 4.4131036 -0.42997599 3
7.961421 4.4391975 -0.42785972 6
8.2313709 4.4517555 -0.42857099 6
6.1020241 4.5184631 -0.41843092 3
6.3765969 4.5336699 -0.46563846 4
8.3231096 4.5986142 -0.44071168 6
6.172183 4.6635146 -0.46551064 5
6.4782944 4.6536422 -0.44148839 6
6.9566941 4.6861992 -0.44199997 3
8.1743202 4.65382 -0.42373046 6.3333335
8.2469549 4.651556 -0.45576748 7
8.3580751 4.6471663 -0.46589047 4
6.0786428 4.7107191 -0.41319424 4
6.1411319 4.7684259 -0.47493827 3
6.2186975 4.7668619 -0.44856405 4
7.0046568 4.7515049 -0.46397245 4
7.8750029 4.7676897 -0.43146044 6
8.202755 4.7019553 -0.44853079 6
6.0798655 4.8403511 -0.40265572 3
6.4776545 4.8697743 -0.43178695 4
6.8104296 4.8591499 -0.40156031 4
8.1740294 4.8641543 -0.40252709 4
8.3558216 4.8305678 -0.4109951 5.5
6.1350851 4.9669704 -0.42629144 3
6.3350563 4.9564085 -0.45608187 4
8.1754122 4.9573798 -0.42721266 6
8.2633781 4.9605784 -0.43362969 6
6.0749097 5.0609064 -0.44298911 4
6.1795669 5.0304022 -0.4330537 7
7.8376703 5.0094161 -0.41558737 7
8.1451435 5.0071826 -0.40580988 6
8.2335415 5.0813227 -0.42414972 5
6.077939 5.1095085 -0.46644193 4
6.1990118 5.1693468 -0.42597175 1
6.2369065 5.1257758 -0.48153341 4
8.2587461 5.1877494 -0.42118287 5
8.312891 5.1766987 -0.40034905 4
6.0476956 5.2621202 -0.47760135 1
6.1503143 5.2765722 -0.46075109 3.5
6.3231282 5.2304635 -0.46647024 4
6.7536964 5.2653341 -0.40683919 3
6.0639753 5.3175535 -0.47905195 4
8.1891575 5.3667145 -0.42279157 3
8.2434969 5.3612127 -0.42660066 5
8.346097 5.4128613 -0.41303897 6
6.0292983 5.5160856 -0.41055834 4
6.1301112 5.5306063 -0.45265138 3
6.5059843 5.5672174 -0.49965149 3
6.9201822 5.5924673 -0.47639382 4
8.261158 5.5306787 -0.43774018 3.5
6.0840826 5.634511 -0.44105744 1
8.1687346 5.6935987 -0.49433881 7
8.2087927 5.6216469 -0.41379166 7
6.4775496 5.7025805 -0.41467971 6
6.7900872 5.7728248 -0.40993989 4
7.9568667 5.782352 -0.41971511 3
8.1787176 5.7522902 -0.4487873 3
8.2548752 5.7503343 -0.45251176 6.5
8.3506861 5.7287254 -0.4043895 7
6.0324883 5.8323135 -0.45319694 4
6.2545786 5.8739481 -0.42352894 4
6.3819394 5.8191762 -0.46561885 3
6.5770946 5.8752766 -0.46118927 4
6.6725144 5.8140125 -0.42303705 4
7.7889957 5.8464928 -0.44068986 7
8.1837225 5.8134174 -0.41392374 4
8.2656078 5.8525391 -0.47537529 8
6.0734463 5.9046097 -0.43691954 4.5
6.2737398 5.9969864 -0.48102611 4
8.1315308 5.9685702 -0.42451447 4
8.3410616 5.9095764 -0.42478371 8
7.6310472 6.0271411 -0.48430642 7
7.9610357 6.0542178 -0.41608226 7
8.2869835 6.053174 -0.43467164 6
6.0289979 6.1241341 -0.45850053 3.6666667
6.3682528 6.1366501 -0.47054344 6
6.4370499 6.1105318 -0.47385126 3
8.252739 6.1456103 -0.43302727 3
5.9957156 6.2823553 -0.48645252 6
6.0184264 6.2334957 -0.49355811 4
6.5881977 6.2801547 -0.4803738 3
7.8398161 6.2143517 -0.4331407 7
8.2673283 6.2121673 -0.46129569 6
6.0657821 6.341506 -0.4861998 3
6.2078371 6.3292947 -0.48612165 2
6.5477977 6.315176 -0.42672062 3
8.2972374 6.3525324 -0.45375049 7
6.0411091 6.421895 -0.44936252 4
6.4266005 6.4286861 -0.47717655 3
7.9352427 6.435359 -0.40712506 6
6.0941439 6.5000696 -0.42355055 4
6.6330667 6.5937605 -0.49020225 7
8.1943541 6.5834432 -0.46226203 3
8.2446404 6.516572 -0.42534491 6
5.9995289 6.605207 -0.40042788 4
6.0054755 6.6070676 -0.41687167 3
7.9215212 6.6034899 -0.46507406 3
8.0462027 6.629251 -0.43337721 3
8.1899185 6.656898 -0.46540159 5
8.2183208 6.6445303 -0.48978516 7
5.9928551 6.7059202 -0.40512383 7
6.1056814 6.7784071 -0.49731249 4
6.3629198 6.7241025 -0.48219019 2
7.7026863 6.7346935 -0.44960958 6
8.2367554 6.7698383 -0.4474178 7
5.9726639 6.8625994 -0.45474875 9
6.1099939 6.8199558 -0.44249076 8
8.1713591 6.8377829 -0.47856474 3
7.9747801 7.1213379 -0.4626596 8
8.1703968 7.1642332 -0.45302445 4
6.2001991 7.326436 -0.4613167 3
6.5275583 7.3211241 -0.44653612 2
8.2864628 7.339148 -0.43638086 7
5.8951416 7.4800086 -0.44702134 26.666666
5.8691697 7.518682 -0.45468196 14.666667
6.3122187 7.5477581 -0.46208903 3
8.1835413 7.5753441 -0.46333802 4
5.9314833 7.6746807 -0.48518082 2
6.3348799 7.6997123 -0.49716467 4
6.5411592 7.6132307 -0.46480098 4
8.115037 7.7027011 -0.43524063 3
5.8784022 7.8537188 -0.47453192 6
5.9079103 7.8357687 -0.43111634 4
6.3337464 7.8598337 -0.4399749 3
5.8919001 7.9268541 -0.4373605 6
5.9190845 7.9354682 -0.49129081 4
5.866044 8.0244846 -0.43597656 7
8.1084251 8.0655985 -0.48730761 3
8.227562 8.0896635 -0.48201418 7
7.8655138 8.196805 -0.49056745 3
6.1601734 8.2041721 -0.48060954 3
8.1017361 8.247858 -0.49658853 7
8.2223797 8.2577763 -0.42026728 3
8.2111492 8.3227377 -0.49556261 7
5.8293915 8.7846966 -0.45305997 35
5.8812571 8.8121967 -0.41038495 35
7.8837528 9.7949553 -0.49670702 6
8.0789165 9.8807507 -0.49389136 6
5.8217416 10.367879 -0.42824522 7.3333335
5.795722 10.444311 -0.47334838 2.5
8.0497217 10.535298 -0.42552096 8
5.7632494 10.716088 -0.44126922 3
5.7839937 11.152458 -0.45390177 3
5.7758784 11.271451 -0.45474318 5.3333335
5.7669435 11.377594 -0.45562515 2.5
6.7950664 11.442775 -0.42000541 4
7.4922853 12.458974 -0.43754375 3
8.009202 12.499211 -0.41363436 8
7.9609294 12.766962 -0.48525476 8
7.9829226 12.877457 -0.48858505 14
5.5516963 15.059505 -0.41132927 8
5.244935 22.218679 -0.47882944 36
6.5784478 32.038723 -0.43775696 10
6.744267 32.007366 -0.4071759 34
3.0087178 -9.1790266 -0.35688037 2
3.1159549 -9.1119719 -0.3977026 11
3.1889703 -9.0866461 -0.35635638 7
3.230279 -9.0798674 -0.35529611 6
3.2385011 -8.9470959 -0.34508583 16
3.7378776 -8.5372753 -0.33373716 4
3.7285862 -8.4645615 -0.34260088 1
3.8028359 -8.4254274 -0.3426474 2
3.9789073 -8.2258148 -0.32582068 7
4.0732059 -8.0571823 -0.33557606 7.5
0.90765786 -7.3693109 -0.35049325 9
0.89328426 -7.0445533 -0.36102429 6
0.88953042 -6.9395676 -0.32230324 7
0.88162726 -6.5561295 -0.38576907 3
0.82898474 -6.012548 -0.38508469 4
-0.16372848 -5.6237679 -0.32835409 3
-0.86635661 -5.5078883 -0.38467741 2
-0.49688399 -5.5424538 -0.37781614 2
0.807827 -5.4558735 -0.31708804 3
0.75208426 -4.7799764 -0.38977784 3
0.80639791 -4.7175331 -0.35599142 3
0.77203071 -4.5515342 -0.35525179 4.5
0.72132981 -4.1413136 -0.35963911 5
6.1898403 -4.108191 -0.35640019 1
0.78693843 -4.0097265 -0.30448323 4
2.0552897 -4.0402813 -0.38914758 6
2.1201961 -4.0282302 -0.38496262 3
6.0946813 -4.0461974 -0.38502854 4
0.72898811 -3.9486723 -0.36626315 4.5
2.0218809 -3.9256244 -0.33860236 3
2.115382 -3.9680085 -0.36168835 2
2.4668736 -3.9466197 -0.30100971 9
6.5673828 -3.9329791 -0.37088603 8
0.7434541 -3.8451977 -0.31221002 3
2.4640889 -3.8490992 -0.34885448 10
2.5085618 -3.8451958 -0.34565052 8.666667
-0.43705344 -3.7461276 -0.33188295 1.5
0.71975565 -3.6785362 -0.33793238 7
1.2798467 -3.6698539 -0.39212877 2
1.9042488 -3.6024551 -0.39438009 2
2.5261221 -3.6608906 -0.35888225 8
-0.29030883 -3.5051765 -0.38315359 2
0.73416007 -3.5786614 -0.31880268 6
2.0492222 -3.526154 -0.39145201 7.5
2.4783053 -3.5901539 -0.34082219 7.5
2.5035095 -3.5572519 -0.32357991 8
8.0990829 -3.5740054 -0.3208468 9
8.1919107 -3.566606 -0.31141663 9
-0.61729205 -3.4096246 -0.35902292 2.5
-0.57492316 -3.4412854 -0.37156448 2.6666667
-0.45711684 -3.4194207 -0.34644243 2
-0.35365781 -3.462513 -0.3289459 2
-0.29449099 -3.4911182 -0.32838133 2
0.04915911 -3.460043 -0.35608023 2
0.23563673 -3.4060733 -0.31847063 2
1.2903323 -3.4666805 -0.39683506 3
1.5366143 -3.4081247 -0.39778191 3
2.0082121 -3.493093 -0.38310131 4
3.0762346 -3.4390221 -0.39894015 3
3.2838604 -3.4078135 -0.39360973 4
3.3305125 -3.4339557 -0.38734755 3
5.7299414 -3.4055104 -0.32533723 6
6.0244498 -3.4962358 -0.33003819 4
6.1131473 -3.4333377 -0.30716282 1
-0.62025553 -3.3288047 -0.32439676 2
-0.58910125 -3.33532 -0.35933012 2
0.34871528 -3.3482087 -0.34685537 1.6666666
1.6854492 -3.3697336 -0.38465822 3
2.0254951 -3.330442 -0.38080749 3
2.3713818 -3.3748689 -0.39675012 1
2.4498429 -3.3289409 -0.33482584 9.625
2.5251486 -3.3143072 -0.30734819 1
2.686167 -3.3473661 -0.33519554 8
2.9327378 -3.3471663 -0.34133804 11
3.1040778 -3.3501227 -0.38477349 3
3.4479992 -3.3118932 -0.37597466 6
3.5170851 -3.3650434 -0.37540039 7
3.7628195 -3.3436017 -0.33379897 7.5
3.8029366 -3.3880908 -0.33603549 6
5.8389473 -3.3887258 -0.31227434 3
5.9221935 -3.3353896 -0.31531399 9
-0.70717406 -3.2275589 -0.34199131 2
-0.63541257 -3.259059 -0.33028468 1.5
-0.5975616 -3.2295537 -0.36380392 4
0.17472844 -3.2836049 -0.39635023 9
0.39302078 -3.2319448 -0.35328966 4
0.44245881 -3.2886305 -0.39805645 3
2.4591961 -3.2908044 -0.34322715 11.9
2.688293 -3.265631 -0.31886873 1
3.2925506 -3.2906094 -0.39300051 3
3.364409 -3.257863 -0.38537019 4
3.5410345 -3.2418416 -0.36750129 8.666667
3.6418631 -3.2459409 -0.36147177 9.9375
3.7652047 -3.2625332 -0.34985188 4.5
4.4125462 -3.2405355 -0.33995971 1
4.7936029 -3.2036614 -0.31748918 2
5.6837263 -3.2308645 -0.30932367 4
5.7258148 -3.2899551 -0.30923116 3
-0.61324155 -3.1786962 -0.32297784 1.5
0.44992286 -3.1220918 -0.34211808 5.75
0.5212791 -3.1379614 -0.31157139 6
0.68685687 -3.1309302 -0.30795711 6.5999999
0.72058338 -3.1223602 -0.37466457 7
2.1237459 -3.1829917 -0.39525065 4
3.2941878 -3.1885638 -0.38971984 4
3.365927 -3.1194592 -0.3868106 3
3.4535227 -3.1983588 -0.39959824 3
3.6742423 -3.1954076 -0.37223977 3
3.8170187 -3.1985688 -0.34708437 4
4.1336055 -3.1341548 -0.3292796 4.5
4.3521924 -3.177433 -0.37117904 4
4.6483598 -3.1589212 -0.35056362 3
4.8775206 -3.131027 -0.30924559 1
8.2847004 -3.1893158 -0.30258751 4
-0.61568028 -3.0408282 -0.34779188 7.25
0.26338494 -3.0307682 -0.36565629 1
0.43268013 -3.0903862 -0.33090797 8.5
0.68281108 -3.091342 -0.32594815 9.666667
0.71357852 -3.0891268 -0.34215063 9.1999998
2.3154411 -3.0592806 -0.39672986 4
3.0746126 -3.0843079 -0.39067632 4
3.6052349 -3.0714505 -0.38857219 7
3.7416317 -3.0749967 -0.34523925 6
3.8846903 -3.0540469 -0.34427544 6
3.9675853 -3.0414863 -0.36168057 5.5999999
4.0688848 -3.0472074 -0.33364034 3.5
4.1430182 -3.0710309 -0.3359569 4.6666665
4.2087264 -3.0531816 -0.36719322 4
4.3338041 -3.0250854 -0.38728845 4
4.6383395 -3.0825546 -0.32514176 3.3333333
4.8748183 -3.0378971 -0.32467818 3.5
4.9624815 -3.0277729 -0.32301676 4
5.0456142 -3.05054 -0.31168199 2.5
5.1267958 -3.0360079 -0.34887832 6
5.6606116 -3.0108159 -0.31171715 2
-0.64003384 -2.9485409 -0.35599494 1
-0.59073895 -2.9066389 -0.37614202 7.5
3.1838651 -2.9479067 -0.3825624 4
3.5624001 -2.9193017 -0.37630898 4
3.6009126 -2.9778249 -0.35757321 4
3.7555399 -2.95328 -0.34060481 6.9411764
3.8728454 -2.9274404 -0.39330351 4
3.9539227 -2.9134185 -0.35726184 4
4.0129433 -2.9522343 -0.33233926 7.5
4.1437993 -2.9973135 -0.35424435 6
4.3107271 -2.9815269 -0.33489871 10
4.4415169 -2.964972 -0.39101404 3
4.5852561 -2.9358625 -0.36807597 27
4.6708784 -2.9167733 -0.35601801 3
4.7911038 -2.9592834 -0.33388528 7
4.8220782 -2.9253447 -0.35096473 3
4.9161668 -2.9895067 -0.38487104 1
5.0640898 -2.9338009 -0.34462968 3.4000001
6.7495966 -2.9985411 -0.31205374 4
-0.71982527 -2.8431473 -0.37651286 4
-0.66264939 -2.8341784 -0.33893973 4.75
2.4882054 -2.8888011 -0.39602524 3
2.5420828 -2.8808875 -0.38750863 3
2.8300076 -2.8870273 -0.39713335 4
3.3685691 -2.8920989 -0.39069712 4
3.5517313 -2.8830104 -0.3942146 1
3.7733567 -2.8652406 -0.33066365 8
3.8517623 -2.8791337 -0.37199557 3.5
3.9894204 -2.8814559 -0.38487589 4
4.1352873 -2.8863437 -0.35389176 4
4.3433924 -2.8677769 -0.32821965 2
4.4615541 -2.8655787 -0.37698019 3
5.1192193 -2.8673375 -0.35420939 2
5.2009854 -2.8758469 -0.32139358 1
-0.70670009 -2.7194598 -0.3171874 6
-0.6153236 -2.7027905 -0.33445123 7
2.2265174 -2.7573488 -0.38492027 6
2.6204576 -2.721673 -0.39170542 6
3.190264 -2.7433631 -0.38623026 6
3.2107308 -2.7721853 -0.37046745 4
3.3794458 -2.7340837 -0.37025067 1
3.6673598 -2.7911077 -0.38348824 1
5.0659943 -2.7831199 -0.30713284 7
-0.65304828 -2.6753244 -0.31564137 3.5
2.4319158 -2.6048012 -0.37528792 4
3.693778 -2.6486933 -0.349336 3
3.822211 -2.690393 -0.37878263 2
5.0623159 -2.6584182 -0.32695279 4.5
-0.65803069 -2.5039654 -0.31496274 4.5
3.4863937 -2.5852542 -0.39772823 4
3.6130171 -2.5090561 -0.38630405 1
3.7291031 -2.5481753 -0.36885324 3
4.7893648 -2.5213912 -0.36810598 3
-0.63168502 -2.4966486 -0.38553482 6
2.4828525 -2.4567022 -0.39240977 2
2.881351 -2.4250531 -0.3715333 6
3.0868657 -2.4601672 -0.38677844 3
4.9101248 -2.4735062 -0.3744446 3
5.046977 -2.4746313 -0.36214516 3
-0.65445268 -2.3187528 -0.3086291 7
3.0007787 -2.3681705 -0.38294795 3
3.1344638 -2.3313007 -0.35794288 6
3.8414848 -2.3618484 -0.3624135 3
3.9357929 -2.3664494 -0.37713054 3
5.0474563 -2.3783019 -0.34974405 3.3333333
-0.65914339 -2.2355452 -0.31248063 6.6666665
2.7525373 -2.2678857 -0.38750213 2
3.5824938 -2.2970521 -0.3923957 2
4.088419 -2.2043588 -0.37782973 2
-0.75391817 -2.1515965 -0.31138194 1
-0.64508462 -2.1454511 -0.37379846 4
3.5597916 -2.1770883 -0.38474619 3
4.4447627 -2.1875916 -0.36228779 1
7.2766495 -2.1780481 -0.33469397 2
7.8186064 -2.1492205 -0.33363938 3
-0.63941872 -2.0021338 -0.34050444 2
3.1248603 -2.076827 -0.39380434 3
4.1376009 -2.051888 -0.33064663 3
5.1369634 -2.0825329 -0.37224695 3
5.5825796 -2.0394561 -0.36763626 2
-0.6550802 -1.9484267 -0.34419256 6
2.353806 -1.968756 -0.39866906 3
2.9247479 -1.9408977 -0.37728605 4
3.3486168 -1.9159143 -0.39895412 2
3.5372016 -1.9088297 -0.3821207 3
3.6961782 -1.950525 -0.36483568 3
4.7630105 -1.9077246 -0.33175683 4
7.7539649 -1.989912 -0.30958337 4
-0.67711353 -1.8355933 -0.3499456 5.5
2.7561154 -1.8534013 -0.37668893 3
3.4032874 -1.8492255 -0.39397973 3
5.0453753 -1.8596236 -0.35495037 4
-0.58882451 -1.7490915 -0.30391973 2
1.4229703 -1.7541854 -0.36722386 6
2.4925771 -1.7315075 -0.37970778 6
2.5743353 -1.7091857 -0.37628394 6
3.0864487 -1.7106856 -0.38847849 4
3.6185448 -1.7590791 -0.37029153 3
6.8662653 -1.7885549 -0.30553806 3
-0.67733717 -1.647301 -0.32619262 4
1.9917063 -1.6164067 -0.36747545 4
2.4867096 -1.6012609 -0.37983575 6
2.7820437 -1.6721971 -0.37038553 4
2.808887 -1.69358 -0.37477937 4
2.9369564 -1.6232545 -0.37643808 4
3.0916493 -1.6173902 -0.38544741 4
3.40274 -1.6984644 -0.37289551 4
4.2079086 -1.6822988 -0.36883107 3
4.316473 -1.673473 -0.37270615 3
4.8487244 -1.6129227 -0.35831138 4
5.6146641 -1.6015801 -0.36462757 4
7.1495676 -1.6248128 -0.351706 2
-0.71271348 -1.5646926 -0.3940787 6
-0.66994905 -1.5454105 -0.351354 3.8333333
2.8527956 -1.5911881 -0.39682046 3
3.7285328 -1.5332782 -0.37623322 4.5
3.8067038 -1.5485215 -0.3966231 3
4.9248219 -1.5030094 -0.31624371 3
9.4250469 -1.5842688 -0.31109506 3
9.5744572 -1.5240529 -0.31360155 3
-0.67587578 -1.4521796 -0.32636246 2.8
-0.59279776 -1.4188465 -0.34302613 4
1.8802209 -1.4162467 -0.38455957 4
2.6629534 -1.4849899 -0.37154964 4
2.9431496 -1.4314219 -0.38914633 3
3.4789014 -1.4891295 -0.37566558 4
3.5490015 -1.4835145 -0.37759978 3
4.4714808 -1.426397 -0.34744379 4
4.9509873 -1.4839582 -0.32343128 4
8.8805456 -1.4446325 -0.30915418 2.5
-0.70937997 -1.3477868 -0.33458218 6.1666665
-0.68622947 -1.3586173 -0.3330912 4
-0.54112482 -1.3504784 -0.30872262 1
1.9557236 -1.316022 -0.39323118 3
2.5471826 -1.3644197 -0.37054408 4
2.6670504 -1.3432388 -0.3706122 4
2.7717435 -1.3294686 -0.37632504 6
2.8667316 -1.3768115 -0.3973926 3
2.9086499 -1.3818605 -0.37137944 3
3.3775148 -1.3517643 -0.33910075 4
3.76864 -1.3522545 -0.37027144 3
3.8521543 -1.372128 -0.3622002 3.5
3.9508991 -1.3291768 -0.34707922 3
4.5004096 -1.3154519 -0.33930072 4
4.8776159 -1.338259 -0.34521461 5
4.9000053 -1.322093 -0.3372716 4
-0.65259218 -1.2559851 -0.32127914 4.375
-0.57634544 -1.2815455 -0.33322087 4
2.8739562 -1.248004 -0.36307943 4
3.217077 -1.2450415 -0.38076904 3
3.5078826 -1.2282141 -0.38746595 3
3.7863393 -1.2474297 -0.37146005 4
4.1823816 -1.2401357 -0.35950682 4
4.4281225 -1.2652547 -0.33279866 4
4.8196225 -1.2413701 -0.38132185 3
-0.7198143 -1.1267176 -0.33753318 5
-0.659006 -1.1581894 -0.32635278 5
2.3828902 -1.184914 -0.39908403 4
2.4110622 -1.1887494 -0.38025764 3
3.347492 -1.132332 -0.38099274 3
3.889298 -1.106397 -0.38045019 4
4.363306 -1.1627394 -0.36424914 1
5.7293763 -1.1351519 -0.38744906 1
8.1283169 -1.154613 -0.30322856 2
-0.67011684 -1.0648257 -0.35539263 5
-0.58174914 -1.0521896 -0.30709213 1
2.1121044 -1.0438049 -0.39409685 4.5
2.4637468 -1.0904317 -0.39400718 4
3.1017482 -1.0509456 -0.39463478 7
4.1261153 -1.0173384 -0.37384546 7
4.3645816 -1.0258976 -0.3698867 4
4.7196374 -1.0738997 -0.3533223 5
4.8124442 -1.0017838 -0.35888225 4
5.8364801 -1.0829194 -0.37141344 1
7.0806179 -1.071372 -0.30296797 3
-0.71109271 -0.943178 -0.34138116 6
-0.66831124 -0.92637551 -0.3505311 4.625
-0.58681911 -0.93838662 -0.31903839 2.5
4.4256926 -0.97765493 -0.35737976 6
4.5734582 -0.99943411 -0.36783955 4
4.6266928 -0.97485566 -0.34177798 4
4.7539692 -0.93986845 -0.35293958 3.5
7.6313868 -0.97128034 -0.30200273 3
