# .PCD v0.7 - Point Cloud Data file format
VERSION 0.7
FIELDS x y z intensity roll pitch yaw time
SIZE 4 4 4 4 4 4 4 8
TYPE F F F F F F F F
COUNT 1 1 1 1 1 1 1 1
WIDTH 79
HEIGHT 1
VIEWPOINT 0 0 0 1 0 0 0
POINTS 79
DATA ascii
0 0 0 0 0.033905171 -0.0041518351 -1.339216e-20 1.5171572e+09
0.3118946 0.014772405 0.0060627977 1 0.0060290392 -0.0036754902 0.00077421474 1.5171573e+09
0.62376547 0.030784002 0.01224031 2 -0.0044780714 0.014554192 0.010472028 1.5171573e+09
0.92138863 0.0951242 0.026183624 3 -0.0084378617 -0.0031093631 0.0063764891 1.5171573e+09
1.2451354 0.11310793 0.035741925 4 0.006228684 0.0051744888 0.020861391 1.5171573e+09
1.5494858 0.14550833 0.048218429 5 -0.010685781 0.0089189261 0.012699552 1.5171573e+09
1.8970462 0.17207091 0.051633935 6 0.0026315784 -0.0024208652 0.0097896298 1.5171573e+09
2.2255025 0.20846187 0.052112695 7 0.0052797361 0.010812666 0.0081478469 1.5171573e+09
2.5323675 0.23413396 0.032551404 8 -0.016849557 0.020468971 0.0073450184 1.5171573e+09
2.8724778 0.25278068 0.055973273 9 0.00032076522 0.0095155714 -0.0055433246 1.5171573e+09
3.0074947 0.28036788 0.061424874 10 -0.00020748659 0.006984693 0.049380451 1.5171573e+09
3.0836236 0.28271961 0.086242907 11 0.0089394739 0.013918118 0.11919342 1.5171573e+09
3.2192187 0.32762492 0.092859693 12 -0.00076634943 0.0066014612 0.17268516 1.5171573e+09
3.3376179 0.37529171 0.077715464 13 -0.013397356 0.0030155587 0.24321181 1.5171573e+09
3.4398172 0.40807343 0.066671893 14 -0.0098141367 0.016812362 0.31592482 1.5171573e+09
3.6240354 0.49143922 0.079704441 15 -0.0044841859 -0.0046309433 0.42000753 1.5171573e+09
3.8050499 0.60377085 0.077004932 16 -0.00079831399 0.010260081 0.47048977 1.5171573e+09
4.0722232 0.75283253 0.079013169 17 -0.0046153264 0.0064485958 0.46139425 1.5171573e+09
4.3427887 0.89731598 0.097874589 18 0.0044940235 0.0066127526 0.46367082 1.5171573e+09
4.6186352 1.0828309 0.080881774 19 -0.0079085212 0.0070423651 0.458736 1.5171573e+09
4.7992978 1.166888 0.1047627 20 -0.018682316 0.016701873 0.35847935 1.5171573e+09
4.9040217 1.2136769 0.10447985 21 -0.012332407 0.0061381427 0.22929955 1.5171573e+09
4.9397392 1.2344491 0.1083098 22 -0.017697521 -0.006515963 0.17564633 1.5171573e+09
5.0760961 1.2374862 0.091798663 23 -0.010687254 0.0050375746 0.018522957 1.5171573e+09
5.1082563 1.2545213 0.097291194 24 -0.016680736 -0.02450629 -0.046425235 1.5171573e+09
5.4388676 1.2951436 0.09889999 25 -0.0013730042 -0.017407613 -0.044515021 1.5171573e+09
5.7394342 1.3311151 0.12567233 26 -0.025507484 -0.0021924807 -0.040548153 1.5171573e+09
6.0742326 1.3650334 0.15096469 27 -0.040201202 0.008145811 -0.031819481 1.5171573e+09
6.2357812 1.3948822 0.16649121 28 0.010938408 -0.0046644202 -0.03723887 1.5171573e+09
6.4689898 1.430602 0.11259095 29 -0.053013172 0.0051239557 -0.032766592 1.5171573e+09
6.6455069 1.472409 0.14319524 30 0.0015800783 0.0020948502 -0.031593025 1.5171573e+09
6.9543538 1.5051 0.14437898 31 -0.027412299 -0.005232417 -0.027713623 1.5171573e+09
7.2817121 1.5454437 0.12572254 32 -0.026451472 0.0063738306 -0.0094726738 1.5171573e+09
7.5960059 1.5815483 0.15404211 33 0.0026573788 -0.0069388938 0.0010401024 1.5171573e+09
7.8953791 1.6451824 0.1938502 34 -0.008385269 0.0050927671 -0.003792376 1.5171573e+09
8.2289572 1.7269567 0.15032579 35 0.063135445 0.014979888 -0.0095966468 1.5171573e+09
8.3055983 1.7821734 0.17609787 36 -0.0097469054 -0.0026359754 -0.022649722 1.5171573e+09
8.3623066 1.8374977 0.22162801 37 -0.028872672 0.050578281 -0.008126637 1.5171573e+09
8.4010353 1.8947004 0.15827364 38 -0.038097531 -0.0035888192 -0.0056096003 1.5171573e+09
8.5644293 2.0579791 0.19489451 39 0.096823856 0.019468864 -0.039538119 1.5171573e+09
8.5896797 2.1272719 0.14825708 40 0.045851853 0.002245862 -0.017616414 1.5171573e+09
8.6251431 2.1942558 0.18385287 41 -0.045969758 -0.0060798828 -0.042419888 1.5171573e+09
8.6475859 2.2206023 0.19962408 42 -0.10518125 0.0086901085 -0.011509307 1.5171573e+09
8.5635643 2.0893533 0.20836951 43 -0.028601168 0.0019912228 0.0009881265 1.5171573e+09
8.2646637 2.0511823 0.15521397 44 -0.0068194526 -0.0072806543 -0.021409521 1.5171573e+09
7.874609 2.1087015 0.17312536 45 -0.031495403 -0.0084108757 -0.036955714 1.5171573e+09
7.5384092 2.1146774 0.12049014 46 -0.014260768 -0.009187635 -0.018142255 1.5171573e+09
7.2135258 2.1368315 0.11333723 47 -0.041504689 -0.033647027 -0.04436988 1.5171573e+09
6.8835058 2.1028016 0.129842 48 -0.049462732 -0.022660438 -0.059401724 1.5171573e+09
6.4988937 1.9924715 0.15359558 49 -0.014455991 -0.0032887855 -0.037232827 1.5171573e+09
6.3747525 1.9610063 0.092972569 50 0.021142783 0.011457046 -0.091859825 1.5171573e+09
5.9497962 1.9088082 0.08278618 51 0.092050552 -0.033757336 -0.045221131 1.5171573e+09
5.7647042 1.9573467 0.1369068 52 0.016525615 -0.0088682631 -0.083608799 1.5171573e+09
5.6275077 1.9059885 0.073594794 53 0.025248207 -0.020656087 -0.01085599 1.5171573e+09
5.2073498 1.9562418 0.098841622 54 0.010956008 -0.032735802 0.047868032 1.5171573e+09
4.8698735 1.9455043 0.093435094 55 -0.0053490438 -0.015388985 0.11879427 1.5171573e+09
4.6601696 1.8916593 0.056996673 56 -0.0027319675 -0.023677899 0.24500836 1.5171573e+09
4.4830661 1.9249406 0.10061933 57 -0.058140755 -0.0079941424 0.24350344 1.5171573e+09
4.2945695 1.8782443 0.0035099681 58 -0.050751194 -0.01622469 0.35811213 1.5171573e+09
4.130559 1.7887142 0.12197605 59 -0.027072039 -0.0077786306 0.44826311 1.5171573e+09
3.7867973 1.6789262 0.083305374 60 -0.02674349 -0.0074858 0.42907777 1.5171573e+09
3.4392958 1.4453458 0.035246015 61 0.0012161242 -0.017632496 0.46456066 1.5171573e+09
3.1026361 1.3001376 0.0071484922 62 -0.018919801 -0.010208762 0.42853498 1.5171573e+09
2.7322247 1.0843843 0.03999896 63 0.0027223076 -0.012080921 0.41984534 1.5171573e+09
2.3924367 0.91476738 0.042399265 64 0.034929093 -0.016253306 0.41988131 1.5171573e+09
2.0056281 0.73962873 0.069779739 65 0.0016113367 -0.00088000821 0.38982415 1.5171573e+09
1.6513851 0.53721005 0.07235691 66 0.045024466 -0.015571152 0.41858414 1.5171573e+09
1.1328338 0.27922094 0.036662586 67 0.053212352 -0.021680946 0.25226825 1.5171573e+09
0.73900527 0.19229105 0.021815883 68 0.0092508048 -0.0002648645 0.19150531 1.5171573e+09
0.39989963 0.10364481 0.026348546 69 0.017706582 -0.039877944 0.21636774 1.5171573e+09
0.35388386 0.10993892 0.011562751 70 -0.016180923 0.0095873373 0.15412548 1.5171573e+09
0.38324755 0.12696017 0.016938681 71 -0.028600233 -0.00072669733 0.1041773 1.5171573e+09
0.077633992 0.10071737 0.0087735765 72 -0.028205087 0.0080071175 0.099408753 1.5171573e+09
-0.074261121 -0.087776423 0.025396196 73 -0.014468031 -0.0033295136 -0.069289982 1.5171573e+09
-0.071866058 -0.082436904 0.030505672 74 -0.006309717 0.0031752663 -0.13180627 1.5171573e+09
-0.11854531 -0.043262545 0.012266857 75 -0.015090276 -0.0090689668 0.030334707 1.5171573e+09
-0.082438871 -0.035803039 0.022016186 76 -0.0079993578 -0.00017347843 0.1159194 1.5171573e+09
-0.076562233 -0.024287382 0.02334968 77 0.00021890132 -0.010297048 0.041520234 1.5171573e+09
-0.042789102 -0.0098241959 0.02089376 78 -0.0096973944 -0.0033242656 -0.014073899 1.5171573e+09
