# .PCD v0.7 - Point Cloud Data file format
VERSION 0.7
FIELDS x y z intensity
SIZE 4 4 4 4
TYPE F F F F
COUNT 1 1 1 1
WIDTH 1288
HEIGHT 1
VIEWPOINT 0 0 0 1 0 0 0
POINTS 1288
DATA ascii
2.5134044 1.4989693 -0.39883053 26
3.2022235 1.4187577 -0.36968517 3
3.4719982 1.4799902 -0.34784064 18.710526
3.5287032 1.4799324 -0.34155422 18.571428
3.6595051 1.4718317 -0.32844758 19
3.7429674 1.4825268 -0.33401585 13
3.8755493 1.4632528 -0.3728427 10.5
3.9575367 1.4526485 -0.37289253 9.333333
4.1560922 1.4344604 -0.3638801 6
4.2501302 1.4431665 -0.33057132 8
4.3683133 1.4541645 -0.33616948 12.6
4.4643207 1.4221559 -0.38193655 21
4.6492095 1.4330077 -0.36905006 14.5
4.7439656 1.4206743 -0.34918228 38.4375
4.8405199 1.4397824 -0.36771595 2.875
4.9690089 1.4331391 -0.37792039 4.25
5.0589614 1.4649204 -0.37517023 3.6666667
5.1703558 1.4224806 -0.34106052 3.3333333
5.3468103 1.4507407 -0.37072775 6.7142859
5.4376869 1.4683399 -0.38474542 5.75
5.5575213 1.4460638 -0.35803396 4.5999999
5.6625314 1.4355584 -0.36717144 5.6666665
5.7108579 1.4339099 -0.37475961 5.1999998
5.8872137 1.4353281 -0.31848308 14
6.0689311 1.4038738 -0.3724646 6
6.1728001 1.422338 -0.38688388 3
6.2637706 1.4406962 -0.3372103 2
6.3836288 1.4009902 -0.35907364 3
6.6792321 1.451144 -0.37367156 2
6.8787832 1.4411616 -0.3570213 5
6.9437923 1.4309728 -0.33494562 4.25
7.04142 1.4210734 -0.35145622 9
7.2206964 1.4301829 -0.39876235 3
7.5875559 1.4922745 -0.31632894 4
20.400274 1.4052303 -0.39254367 1
-0.81192636 1.5541393 -0.31323385 10
-0.76189029 1.5448 -0.34973678 24.5
-0.14769316 1.5786686 -0.35477006 30.583334
-0.036726177 1.5588759 -0.34615383 20.848484
0.047912739 1.5659734 -0.35050333 37.32
0.52005863 1.577052 -0.31545818 13
1.1097136 1.5913695 -0.38623211 10
1.2816616 1.5754936 -0.39298105 10.5
1.4209213 1.5637758 -0.34607112 14.5
1.557773 1.5761095 -0.35288441 17.333334
1.6673876 1.5751114 -0.3325071 10.333333
1.7552229 1.5586292 -0.33253443 16.666666
1.8141326 1.5667434 -0.32955512 11.5
1.9476742 1.5421036 -0.35135809 20.666666
2.0080957 1.5692966 -0.33404723 6
2.1379545 1.5505859 -0.35395861 8.8571424
2.2701576 1.5271587 -0.33274147 17
2.3500235 1.5751375 -0.33789656 28
2.4672244 1.5464817 -0.34598693 12.333333
2.5579486 1.5488367 -0.34540677 19.410715
2.6117606 1.5370284 -0.35090396 24.4375
2.7681141 1.5826837 -0.37238091 3
3.2791963 1.589474 -0.39682209 4
3.4640334 1.5305524 -0.35335544 18.533333
3.5056126 1.5027251 -0.30781296 22
3.6149886 1.5222276 -0.3671667 9.5
3.7536983 1.5270114 -0.33935642 12
4.3856297 1.5718386 -0.31362608 3
4.6631503 1.5622468 -0.36058649 31.666666
4.7228298 1.5027053 -0.30630568 82
4.8828688 1.5239522 -0.38769633 3
4.94101 1.5468776 -0.39842859 8
5.3479252 1.5011305 -0.38194889 10
5.4248819 1.5122713 -0.39351729 4
6.1037226 1.5671467 -0.3532474 8
6.4524117 1.5781523 -0.32089037 8
6.5259848 1.599386 -0.33108753 3
6.6845231 1.591354 -0.31862897 6
6.7220793 1.5755556 -0.37915987 3
6.8589272 1.5789495 -0.3568688 4.75
6.9449458 1.5492668 -0.34365982 8.2142859
7.0039353 1.5258596 -0.36284196 4
-7.0643172 1.6178616 -0.32504407 3
-0.90599406 1.6692663 -0.38190225 13
-0.86342514 1.6890759 -0.34367129 10.25
-0.79098052 1.6081758 -0.3413465 28
-0.2247839 1.6704617 -0.35593927 18
-0.1637301 1.6463096 -0.34409371 35.599998
-0.035053506 1.6247956 -0.36074811 27.375
0.020690203 1.6152432 -0.33799386 37
0.15548764 1.674909 -0.34452179 38.625
0.26259607 1.6682637 -0.32766658 10
0.30114388 1.6849597 -0.30550918 2
0.45779699 1.6854525 -0.31707108 33
0.56297702 1.6500075 -0.32832927 18.4
0.65388161 1.6552572 -0.33877248 18.111111
0.75000477 1.6281039 -0.3585093 14.5
0.85665739 1.6418531 -0.34066531 22.714285
0.95327693 1.6400779 -0.30722824 10.333333
1.0579922 1.6389242 -0.35413384 16.4
1.1297915 1.6364707 -0.32133847 13.5
1.2963457 1.6020482 -0.30047676 9
1.3363199 1.6357714 -0.34249166 16
1.4304007 1.6014382 -0.37568694 9
1.5546485 1.6577575 -0.32660294 29.5
1.6733501 1.6199102 -0.31471494 39.5
1.751091 1.6480141 -0.33585915 21
1.9685138 1.6527396 -0.3136256 14
2.2715645 1.615145 -0.30622026 33.5
2.349237 1.6646261 -0.32748759 27.5
2.5761156 1.6564204 -0.34634414 34.083332
2.6224971 1.6457281 -0.34350187 31.515152
2.7779515 1.6823337 -0.39950448 3
3.4663253 1.645787 -0.32951331 33
3.5430579 1.6389678 -0.38452196 24
6.0850339 1.6470284 -0.37289494 4
6.1415682 1.6283932 -0.34280133 3.5
6.2196131 1.6075114 -0.38872167 8
6.4150357 1.6299856 -0.32209966 2
6.5155458 1.6203055 -0.34823632 1
6.861886 1.6095458 -0.32459113 9
6.9395084 1.6467974 -0.36159876 6
7.0416651 1.6411786 -0.3450017 3.5
-0.85813737 1.7035416 -0.34988925 12
-0.59792542 1.7781603 -0.30037257 8
-0.17278239 1.7726479 -0.34434482 17.555555
0.066361427 1.7415091 -0.3600677 50
0.15390277 1.7153193 -0.34552416 37.833332
0.20434946 1.709016 -0.34356847 14.333333
0.4818688 1.7279869 -0.34305018 32
0.51926631 1.7399457 -0.32830524 23.700001
0.65983063 1.7236055 -0.31671473 28.333334
0.73834008 1.7389879 -0.31245339 18.5
0.88010997 1.7094936 -0.31159613 27.666666
0.92337149 1.7431933 -0.31444788 12.666667
1.1236525 1.7227904 -0.31548423 15
1.2761245 1.7429626 -0.36981893 9
1.4761636 1.756989 -0.35536215 7
1.5498413 1.7272521 -0.34329602 12.333333
1.827691 1.7354248 -0.37338009 14.5
2.4487066 1.7806971 -0.31652874 27
2.5029345 1.7742019 -0.38596579 3
5.9892321 1.7709234 -0.3526355 4
6.015326 1.7461537 -0.38030249 4.5
6.3038201 1.7214355 -0.37068939 6
6.5184302 1.7499568 -0.39722398 8
6.7821336 1.7411146 -0.39356491 8
6.8379736 1.7588041 -0.37373143 9
-7.107008 1.8923202 -0.399822 9
-0.83665586 1.8440289 -0.32682663 17.166668
-0.7952795 1.873204 -0.32603049 10
-0.62542367 1.8309826 -0.34811723 15.375
-0.55153728 1.849052 -0.33037245 25.545454
-0.24590051 1.8196657 -0.35338292 14
-0.14304319 1.8518453 -0.34786275 23.423077
-0.049499605 1.893052 -0.3508102 28
0.022456884 1.8941839 -0.35964629 20.5
0.47223639 1.8156419 -0.31247547 19
1.2986275 1.8079908 -0.30958501 13
1.7797375 1.8612697 -0.36967218 40
1.8111837 1.8049934 -0.36417508 8.5
2.3564458 1.8303373 -0.32814991 27.5
6.1293626 1.8098466 -0.3817766 3
-0.9014951 1.9386343 -0.3173292 12
-0.85972285 1.9033606 -0.31654483 9.5
-0.75994325 1.9604734 -0.34447944 50.666668
-0.63623619 1.9280875 -0.33362323 20.714285
-0.57225507 1.9387387 -0.33792001 25.8125
-0.056097031 1.9005632 -0.35677046 14
1.691093 1.9083939 -0.37031153 6
2.3678348 1.9905742 -0.38192174 9
3.0238323 1.9919591 -0.31086224 93
3.4884865 1.9299387 -0.38775888 12.666667
-7.1366034 2.091924 -0.35893929 9
-0.93201143 2.0011194 -0.33398935 11
-0.73204899 2.063621 -0.35894316 61
-0.64219677 2.0371134 -0.36429256 29.5
1.3721991 2.0730879 -0.37663671 3
1.6336811 2.0679042 -0.34300032 32.222221
1.7444715 2.0053971 -0.36969545 13
1.8443453 2.044739 -0.32887861 12
2.048826 2.0657063 -0.33767352 12
2.1182811 2.0614967 -0.32170397 12
2.2294579 2.0754209 -0.33030295 10
2.3721385 2.0360367 -0.36359453 27.933332
2.4082036 2.0564547 -0.33211729 35.25
2.9925127 2.0271232 -0.33772537 12
3.0357306 2.0217974 -0.37345847 11.166667
3.4883804 2.0490911 -0.32936046 9
-7.0685177 2.1845813 -0.30521667 7
-0.74062806 2.1455753 -0.33630338 33.333332
-0.66154647 2.1120474 -0.31982595 29.25
-0.5719924 2.1592343 -0.35990134 36
1.0064049 2.1859248 -0.38332072 3
1.3543446 2.1688979 -0.37476447 3
1.6075909 2.1180849 -0.3917926 33
1.8045659 2.1561732 -0.3964422 9
1.9391251 2.1008489 -0.35784361 8
2.8652558 2.1663306 -0.37300348 4
2.9497266 2.1934886 -0.38189849 3
3.1090736 2.1659083 -0.38898641 5
3.3730521 2.1880393 -0.34418887 22
-7.09236 2.2343965 -0.3665131 3
-6.4492235 2.2453742 -0.35254687 41
-0.73908782 2.2247894 -0.33601654 26.25
1.963238 2.2248344 -0.33854562 6
2.9452193 2.2776442 -0.38884029 4
3.1364682 2.2770157 -0.38270631 11.6
3.251708 2.2126303 -0.37032411 16.5
3.3803329 2.2210212 -0.36611667 12.8
3.4455228 2.2499721 -0.34681371 14
-7.1391687 2.3511388 -0.36718053 8.5
-7.0572515 2.3303783 -0.34087431 11.5
-6.4009743 2.3256695 -0.3086825 45
-0.92302871 2.325305 -0.35172158 28
-0.62726784 2.3948469 -0.35803986 12
-0.55238366 2.3449259 -0.34949368 35
2.7845626 2.3398495 -0.39886916 3
2.9285965 2.306078 -0.3689698 4
3.0508702 2.3751113 -0.37541187 6.5
3.3715096 2.3905108 -0.33678332 10
3.4723151 2.3313906 -0.35605249 17.666666
3.5050988 2.3683615 -0.34720749 16.5
-7.0616665 2.4586873 -0.36744329 79.75
-6.6421695 2.4580986 -0.31527945 22
-6.5350871 2.4276898 -0.34750482 20.666666
-6.4229646 2.438813 -0.35117292 27.35
-6.3774195 2.445507 -0.34758696 38.140625
-0.54549909 2.4660068 -0.35876262 25
0.33346784 2.4401875 -0.31141686 8
1.4845163 2.441735 -0.38189927 7
2.630425 2.4311113 -0.38727593 3
2.9592233 2.431915 -0.39737797 6
3.0217407 2.4483871 -0.37057713 12
3.2572541 2.4415789 -0.39979354 42
3.4871435 2.43467 -0.36950931 8
3.5041227 2.4471762 -0.37816957 10
-6.4404273 2.5274012 -0.33720434 13
-6.3641181 2.5341587 -0.36325145 31.857143
-0.87244666 2.559701 -0.38455412 37
0.29974389 2.5358076 -0.30002204 9
0.33317143 2.5646517 -0.36752176 8.5357141
1.4904701 2.5242872 -0.3339344 11
2.7003384 2.5712488 -0.38224536 3
3.0105343 2.5055959 -0.39492947 9
3.3566492 2.5001493 -0.39276496 29
3.4680471 2.5451174 -0.34378126 8
3.5131366 2.5848222 -0.32055506 19
-6.4723945 2.6258726 -0.3521654 45
-6.3822336 2.6921742 -0.35770029 9
-0.92420995 2.6474905 -0.35949218 12.5
-0.84257269 2.6673703 -0.34584004 39.75
-0.67421222 2.6725841 -0.34910521 50
-6.4408226 2.7577648 -0.34684056 9
-6.3685646 2.7249429 -0.32295874 28
-0.8366102 2.7644119 -0.34449244 22.75
-0.75714922 2.7450378 -0.35005558 36
0.2592988 2.7586937 -0.31547493 36.5
2.3891182 2.7405171 -0.38035241 3
3.1487722 2.7015352 -0.34272671 3
3.2638278 2.7758086 -0.36655629 3
-7.0165734 2.8562641 -0.37033668 77
-6.9984493 2.8943861 -0.38842005 69
-6.4306231 2.8740413 -0.34904197 29.5
-6.3713684 2.8713434 -0.34285554 44.068966
-6.2991109 2.8991532 -0.38581428 44
-0.84759021 2.8856356 -0.37374139 38
-0.064549766 2.8450382 -0.35504991 23.982143
0.042512 2.8462944 -0.34774441 30.200001
0.11596069 2.8568373 -0.35873622 41.75
0.25432676 2.8603301 -0.34482998 32.849998
0.30648792 2.8842342 -0.3943235 41
0.56358504 2.8486645 -0.39693207 3
0.60643017 2.8346264 -0.39185029 3
1.9978712 2.8494895 -0.39800379 2
3.2846835 2.8919935 -0.30760652 21
3.3548307 2.8845069 -0.34089589 19.666666
3.4794028 2.88237 -0.38480401 32
3.5177889 2.8387227 -0.36991012 31.25
-7.0142407 2.9353995 -0.36585477 80.625
-6.9941502 2.9476738 -0.35180521 64.5
-6.75003 2.9470778 -0.34032837 21.5
-6.6683502 2.9583535 -0.3670136 40
-6.4786763 2.9131625 -0.31917298 14
-6.3731136 2.9232786 -0.35454154 35.357143
-6.2814312 2.9536381 -0.33667737 45
-0.86854422 2.920959 -0.37795454 31.5
-0.05042848 2.9570665 -0.32387191 7.5
0.12911904 2.9354722 -0.35434496 55
0.26939467 2.9300697 -0.350337 38.333332
0.33903155 2.9434383 -0.34668365 36.333332
2.1068892 2.9348078 -0.39110109 4
3.2767358 2.9695187 -0.32557151 31
3.32547 2.9369428 -0.35152987 16.461538
3.4730148 2.950568 -0.36845058 11.4
3.525661 2.9480014 -0.35727778 19.4
-6.9654055 3.0440824 -0.34753209 77
-0.70266819 3.0567176 -0.33381659 13
-0.62203574 3.0015931 -0.3824054 42
-0.058911085 3.0229855 -0.35512045 4
0.14298664 3.0159633 -0.33378834 21.75
0.32653689 3.0570173 -0.33518958 33.5
0.54928625 3.0983529 -0.39986113 1
3.3308115 3.0218456 -0.3481136 32.25
3.5242162 3.0181141 -0.34995407 24.5
-7.2019725 3.1958451 -0.39397478 9
-7.0044794 3.1573796 -0.33705541 10
-1.0089672 3.1923149 -0.37296766 30
-0.976372 3.1984053 -0.38897544 13
-0.8742156 3.1793303 -0.35533723 12
-0.75885773 3.1464233 -0.33237886 18.5
-0.67794532 3.1043129 -0.34893799 27
-0.054090977 3.1912465 -0.3176192 3
0.22710991 3.1144993 -0.34995016 47
2.1695242 3.1043775 -0.34234327 3
3.539207 3.135258 -0.38753647 27
-1.0273011 3.2184992 -0.37256783 27.5
-0.962286 3.243217 -0.34623483 29.307692
-0.89531064 3.2129912 -0.36787745 41
2.7728868 3.2833946 -0.32154799 6
2.8299897 3.2901762 -0.34220839 7
2.973598 3.2630379 -0.3653658 6
3.0442681 3.2299662 -0.34892961 4
3.1595902 3.2392807 -0.36618662 3.5
3.4797301 3.2761965 -0.35816991 12
3.5212617 3.2632742 -0.33778581 42
-7.0005922 3.3334389 -0.37243021 42.5
-6.9950767 3.3416128 -0.35702726 90
-0.75205117 3.3793802 -0.34335282 30.083334
0.025805593 3.35447 -0.30963224 17.5
2.8806796 3.3884754 -0.34632021 5
3.2597606 3.3559549 -0.31498945 8
-7.1429892 3.4700236 -0.36221141 9.1999998
-7.0626693 3.4601629 -0.34268212 9.8421049
-0.82767999 3.4281809 -0.31172347 19
-0.75826317 3.4523935 -0.36049357 34.9375
2.8605878 3.4149833 -0.33382928 2
2.9163625 3.4571569 -0.30591592 1
-7.1632204 3.5327234 -0.34934643 13.018518
-7.007575 3.580622 -0.38215667 12
-6.9779396 3.5957289 -0.32858801 9
-0.82767797 3.5201263 -0.38729891 14.666667
0.096833944 3.552753 -0.30280674 60
2.8717401 3.5906258 -0.38218325 4
1.7160153 3.6416061 -0.39437756 4
2.9533744 3.6665385 -0.33553511 10
0.034271598 3.7435436 -0.30759555 24
2.2493951 3.7313483 -0.38979059 85.5
3.1481388 3.7934844 -0.38046587 9.5
0.58919501 3.8557162 -0.34208083 17
0.83244181 3.8919854 -0.35230145 9
1.9775871 3.8511271 -0.37613946 15.5
2.7329545 3.8218353 -0.35710222 4
0.054069243 3.9331276 -0.36094794 32
0.11939323 3.9352653 -0.35013899 9.5
0.76856112 3.9302213 -0.35668305 1
0.85180354 3.9238811 -0.32674748 5.5
1.6650419 4.0178542 -0.39779913 4
2.0035534 4.0747929 -0.37084651 6
2.4635572 4.095314 -0.39255854 64
-0.0026395321 4.1978545 -0.37528265 12
0.038036507 4.1512399 -0.35058519 10.333333
1.5321125 4.1711082 -0.38789713 4
1.9544035 4.1578331 -0.36519098 32
2.9361658 4.1730022 -0.30019128 2
0.061310172 4.3504877 -0.31136376 32
0.85635519 4.3662925 -0.36465195 3
1.8811265 4.3813901 -0.38026932 19
2.1450415 4.364779 -0.3193908 45.5
2.4260805 4.3887162 -0.30191499 2
1.0940065 4.4144258 -0.34014434 41
1.1522437 4.4526305 -0.33131808 40.5
1.2289803 4.4523354 -0.34622344 22.5
1.3159804 4.4269624 -0.33486766 44
1.4508996 4.4278173 -0.38669741 26
1.6125739 4.4076447 -0.31769431 3
1.7693348 4.4673381 -0.32261086 5.5
2.5230536 4.4005232 -0.32415998 35
0.049329519 4.5380445 -0.32120609 27.5
0.12788892 4.551312 -0.30277115 2
1.495263 4.5241466 -0.3665536 12
1.6794474 4.5342135 -0.39501858 21
1.7339832 4.5198226 -0.37950855 12
0.046828985 4.6816545 -0.39850149 1
2.0145676 4.619935 -0.37669429 17
0.03359282 4.7283192 -0.38341445 17
0.11463785 4.7493711 -0.31326613 17
2.1264191 4.701623 -0.39696494 12
-10.367672 5.0678754 -0.34133705 3.8
-10.342585 5.1372795 -0.3457467 4.4000001
-10.292242 5.1911764 -0.36885419 8
-7.3062563 5.1621499 -0.33303681 45
-10.300755 5.2887669 -0.37785763 9
0.09659481 5.241498 -0.3553713 28
0.13203187 5.269505 -0.34715459 23.833334
-10.18377 5.3279996 -0.31989801 2
-8.0568562 5.3934126 -0.33155411 4
-7.134306 5.3769593 -0.31622967 6
-2.9732533 5.3982916 -0.31753695 12
-2.8629577 5.3685822 -0.39190957 10
-2.3218026 5.3814025 -0.32273698 36
-8.0419245 5.4753423 -0.34834376 9.666667
-7.9767017 5.4938622 -0.34233442 16
-7.7689695 5.4976377 -0.39264935 8
-7.4726386 5.4848776 -0.39310047 8
-7.125607 5.4425373 -0.3397522 10.055555
-7.0755539 5.4524412 -0.34921071 10.866667
-5.0688095 5.4994612 -0.39456069 33
-4.8714085 5.4778833 -0.32034153 53
-4.6685886 5.4873066 -0.31426609 27.25
-4.4619164 5.4738564 -0.35527229 27.333334
-4.3000708 5.4602866 -0.3850745 33
-4.2550054 5.4764676 -0.3401095 21.083334
-4.0592799 5.4694381 -0.34491691 33.916668
-3.8577325 5.4699101 -0.33993927 33.785713
-3.6428425 5.4672885 -0.35148168 30.333334
-3.4419675 5.4482923 -0.34807286 30.222221
-3.3575833 5.4588752 -0.34362388 18.333334
-3.249634 5.4837751 -0.34725836 10.911765
-3.0038042 5.4413471 -0.32964754 10
-2.9529281 5.4723496 -0.34821576 13.724138
-2.8886559 5.4866881 -0.38944316 10
-2.6641908 5.466136 -0.34840509 1
-2.5096028 5.4744473 -0.36140734 10
-2.4831672 5.4759855 -0.32355332 3
-2.312499 5.4498239 -0.35035455 29.75
-2.2847009 5.4565468 -0.34905875 33.5625
0.12682152 5.4762011 -0.34878594 9
-9.9125462 5.5346489 -0.39198142 2
-9.8539419 5.5747099 -0.34567755 4
-8.1501007 5.5546551 -0.37502691 3.5
-8.0340004 5.5156713 -0.35667729 13.5
-7.9747047 5.537684 -0.35215318 20.333334
-7.6499672 5.5291109 -0.3876881 7
-7.5158567 5.5149579 -0.37748718 6
-7.3219738 5.550518 -0.39334264 7
-7.1128716 5.5062766 -0.35399354 9
-7.0089612 5.5640273 -0.3627336 17.5
-6.9613595 5.5299516 -0.36506915 10.333333
-6.5455155 5.5932565 -0.37776881 21
-6.1217642 5.5774555 -0.36757627 34
-5.9203711 5.569108 -0.352056 19
-5.8811183 5.580296 -0.34742472 31.666666
-5.7235684 5.5682425 -0.36942792 20.333334
-5.6824808 5.5733447 -0.34120607 32.18182
-5.5231729 5.5681205 -0.36575696 24.833334
-5.4818711 5.5646586 -0.34943783 30.5
-5.3043027 5.5607772 -0.35995135 15.666667
-5.2743773 5.561377 -0.34850472 29
-5.1115952 5.5321937 -0.33088398 17.666666
-5.0713334 5.5466552 -0.34415987 21.565218
-4.9058371 5.5429983 -0.31005141 10
-4.8693218 5.5407338 -0.33909824 21.117647
-4.7569418 5.5403795 -0.33694762 20.75
-4.665895 5.5401421 -0.33776417 21.17647
-4.5355067 5.5349979 -0.34537148 17.666666
-4.4673901 5.5358105 -0.34473833 19.705883
-4.3209386 5.5536427 -0.31992525 8
-4.25419 5.5410767 -0.35398164 39.866665
-4.1617169 5.5581865 -0.33217093 3
-4.0575628 5.525188 -0.34742925 28.733334
-3.9262228 5.5523462 -0.36158335 6
-3.8573077 5.5257726 -0.33852151 32.666668
-3.6517091 5.5159864 -0.34561947 35
-3.5343559 5.5618243 -0.33828792 3.6666667
-3.4542909 5.5517035 -0.35173905 8.3999996
-3.3000686 5.5048122 -0.3899028 8
-3.2512572 5.5182719 -0.35457453 12.086957
-3.147779 5.5555868 -0.30348998 3
-3.0771508 5.5386267 -0.34535235 2
-2.9518824 5.5185413 -0.34812599 11
-2.8564301 5.5200562 -0.34302974 7.3333335
-2.5512204 5.5084767 -0.37027511 8
-2.4697657 5.5160747 -0.34259775 6
-2.3025799 5.5296884 -0.30693501 46
-2.2559552 5.5358071 -0.34980875 32.384617
-9.5699892 5.688561 -0.30245277 38
-8.2026672 5.6204252 -0.34589359 4
-8.1464071 5.6801572 -0.35657197 6.5
-8.0532742 5.6644125 -0.35515371 9
-7.952116 5.6888571 -0.33907497 4.5
-7.8594184 5.6876965 -0.35970923 4
-7.743186 5.6730509 -0.39614341 8
-7.6102676 5.6853347 -0.39331514 8
-7.5812583 5.6872411 -0.3822746 8
-7.1561089 5.6388407 -0.3757236 18
-6.9442472 5.6273313 -0.34389678 15.363636
-6.8050642 5.6345263 -0.35884419 40
-6.7232509 5.6310143 -0.35139811 35.333332
-6.6833405 5.660018 -0.33545262 35.5
-6.5200133 5.6637282 -0.34580445 15.444445
-6.4898624 5.6542859 -0.38552675 12.5
-6.3183374 5.6419702 -0.35647982 28.222221
-6.2867646 5.6419992 -0.35685819 31
-6.1245914 5.6331601 -0.35398841 20.545454
-6.0880523 5.6320248 -0.35790139 21.875
-5.9269166 5.6283765 -0.34769499 14.5
-5.8817782 5.6279426 -0.34626865 27.857143
-5.711122 5.6209278 -0.35772449 18.25
-5.6872296 5.6221938 -0.34720239 22
-5.5413008 5.643681 -0.34537396 6.5
-5.4721355 5.6449847 -0.35563898 8.125
-5.3355155 5.6170821 -0.36507207 10
-5.2732511 5.6481204 -0.3633267 8.25
-5.1210823 5.6603737 -0.34140176 5.25
-5.0655308 5.6431231 -0.34721151 10.333333
-4.941885 5.6367512 -0.35825112 3
-4.8563375 5.6502299 -0.35418344 1.5
-4.7019653 5.6238337 -0.34967262 4
-4.6566963 5.6692801 -0.33458257 1
-4.5457239 5.6103315 -0.32130492 2
-4.4272981 5.6417732 -0.3792204 1
-4.3592086 5.6614275 -0.34388298 1.5
-4.2589531 5.6356173 -0.37742209 1.5
-4.1461401 5.6261172 -0.34661049 2.75
-4.0360198 5.6802187 -0.33982041 1
-3.8665268 5.6506119 -0.34269902 3.3333333
-3.7760801 5.6105604 -0.35929325 2
-3.6498995 5.6611514 -0.36309436 3
-3.5226688 5.6351666 -0.32419455 4.8000002
-3.4645925 5.6546907 -0.34464613 6.75
-3.0399616 5.6396151 -0.373182 2.5
-16.440481 5.7379041 -0.32327592 41.5
-9.6239796 5.7840109 -0.33174786 12
-9.5419149 5.7638659 -0.3611365 21.733334
-9.4804516 5.7578878 -0.39879751 38
-8.0248499 5.7168746 -0.34817967 4.3333335
-7.9113297 5.7084103 -0.30064434 6
-6.7353745 5.7614489 -0.34744689 9.8000002
-6.6847324 5.7164125 -0.37745276 10
-6.5355072 5.7051506 -0.33676156 12
-6.344389 5.7389898 -0.34475863 3.25
-6.2909799 5.7447681 -0.33567715 3
-6.1148672 5.7291746 -0.31279027 1
-6.0931988 5.7181654 -0.34752584 1
-5.9889631 5.7062216 -0.32756746 3
-5.8812575 5.713563 -0.39540216 1
-5.5888081 5.7048206 -0.32623473 2
-5.4367318 5.734333 -0.35549441 5
-5.3161736 5.7044401 -0.35624582 1
-5.1915188 5.7249689 -0.38155091 2
-5.0422516 5.738143 -0.3613258 1
-4.6377583 5.7357731 -0.37965426 1
-4.4259691 5.7191968 -0.31242356 1
-3.8843904 5.7049332 -0.34372216 2
-3.6304417 5.7265601 -0.35123834 2.5
-3.5190122 5.7634373 -0.35484028 12
-3.4640193 5.7267385 -0.3298853 6
-16.158459 5.833425 -0.32137758 9
-15.968227 5.8793392 -0.30668539 9
-9.5110531 5.8592291 -0.33691704 23
-9.4450722 5.8092871 -0.36663747 51
-6.7259369 5.8530211 -0.37098482 9.5
-6.621459 5.8262978 -0.30502883 18
-6.5480404 5.8021736 -0.32246304 2.5
-3.4921389 5.8086605 -0.31797311 1
-2.31269 5.89224 -0.39149514 12
-2.2504442 5.8724222 -0.3845416 15
-0.2286346 5.8319035 -0.39484212 4
-9.3303022 5.9401984 -0.31966394 32
-6.6928315 5.9319482 -0.36596563 3
-15.283051 6.0773644 -0.38577795 10
-2.2562447 6.0298052 -0.37142745 12
-16.493258 6.1485767 -0.35680553 29
-0.25757128 6.1952267 -0.36554602 8
-2.2399926 6.2099175 -0.33234203 12
0.11565423 6.3387513 -0.31536651 37.5
-36.207481 6.4851952 -0.31756201 28
0.081365623 6.428266 -0.37228236 23.666666
-2.2213321 6.5001564 -0.321536 3
-2.2189555 6.6369381 -0.33345628 8
-2.1597869 6.6336594 -0.34276164 4
-3.4824378 6.7853627 -0.37443912 3
-2.2364905 6.7982521 -0.31277731 6
-3.4742463 6.8030663 -0.35671446 2
-2.2564609 6.8039885 -0.3080681 10
-2.2142394 7.0288482 -0.33812264 7.6666665
-2.1684573 7.0711913 -0.36905205 4
-3.465194 7.1524863 -0.3102313 1
-2.1663942 7.1200614 -0.32234439 3
-1.2317245 7.1426249 -0.39771554 3
-2.1669734 7.2540894 -0.35452312 1
-2.0084023 7.2161226 -0.39076141 3
-0.4076767 7.2419405 -0.3916055 4
-0.76799661 7.3792071 -0.38568029 3
-0.16073024 7.3400526 -0.35458922 7
-2.1450341 7.444427 -0.3522447 4
0.13634419 7.4928446 -0.34048685 10
-2.1443801 7.5737906 -0.39150345 8
-0.37563574 7.6117868 -0.37935916 3
-0.28298759 7.6086888 -0.32332322 8
0.19020772 7.6955876 -0.37519908 18
-0.80128324 7.7210369 -0.30836871 3
0.1969862 7.7119446 -0.39929706 8
-2.0059781 7.8390393 -0.33023942 6
-1.7733706 7.8581057 -0.32963726 3
-0.0099549294 7.8687901 -0.37724733 6
-0.12863755 7.9999728 -0.39412075 9
0.15598774 7.9846153 -0.37668648 11
-0.28182721 8.072525 -0.38594562 6
0.1938225 8.0853443 -0.37650356 8
-2.1229372 8.2841187 -0.30097705 9
-0.42650747 8.2584829 -0.39141116 8
-2.1061153 8.4888735 -0.3068499 3
0.23952127 8.6485996 -0.3651585 6
-2.134263 8.9141922 -0.36750963 3
-1.986559 8.9208508 -0.35525748 4
0.23075038 8.9378405 -0.32065153 10
0.34300435 8.972724 -0.35806358 42
-2.1174321 9.0898418 -0.33791023 6
0.22821331 9.053503 -0.30764896 38
-2.1771088 9.1976452 -0.31692281 6
-2.0853343 9.1177664 -0.33499515 6
0.23174787 9.1208439 -0.36737812 31
0.10885108 9.5104666 -0.34471738 10
0.27531219 9.5227022 -0.38364005 8
0.017601013 9.8444443 -0.3703824 8
-0.28889108 10.086791 -0.38575763 8
0.24366735 10.049687 -0.32534418 59.5
0.32611549 10.050827 -0.32607618 26
-1.8435851 10.106408 -0.38197824 19
-1.4434075 10.131994 -0.36724797 2.5
-1.1807621 10.183872 -0.30486879 2
-1.9901941 10.220064 -0.31622195 20
-2.0371237 -18.632444 -0.26585716 39
-1.3234718 -18.618532 -0.27005434 90
-1.2086781 -18.637466 -0.21495323 47
-1.0775378 -18.621534 -0.25675383 42
-2.2473922 -18.567003 -0.23660225 61.5
-2.1765299 -18.589289 -0.2197493 70
-1.9622049 -18.550482 -0.24733335 70
-1.8854492 -18.54187 -0.27223134 68
-0.83639479 -10.512051 -0.25064698 4
-0.78041422 -10.445124 -0.27478269 3
-3.054647 -9.8624792 -0.29368773 1
-0.70925409 -9.1780796 -0.22547953 4
-0.6173892 -9.19944 -0.22930136 4
-2.9139049 -8.5580912 -0.26351908 2
-0.66165876 -8.3168793 -0.24762425 3
-2.84323 -8.2564135 -0.23158717 10
-0.65462983 -8.156003 -0.23111397 4
-2.9490077 -8.0812016 -0.23205057 6
-2.9416773 -7.9519386 -0.26614207 12
-0.61816978 -7.9555635 -0.24009871 4
-0.58425951 -6.9563332 -0.23290408 6
-0.58984596 -6.8432255 -0.29031053 4
-0.56155014 -6.709868 -0.20036286 6
-2.8254306 -6.5305128 -0.27110711 23.5
-2.7402244 -6.574656 -0.20534799 26
-2.8073397 -6.351018 -0.23569527 3
-0.5741725 -6.3758144 -0.20433261 2
-2.828227 -6.2761245 -0.21421149 8
-2.8500106 -6.1714039 -0.25306967 14
-2.8463569 -6.0771208 -0.22321214 4
-2.8333132 -5.9875135 -0.28034139 10
-0.53498781 -5.7773771 -0.23765025 3
-2.8335047 -5.5642037 -0.28809443 4
-0.45750141 -5.508822 -0.28008181 4
-2.7378912 -4.9289031 -0.25759757 2
-0.46892983 -4.681488 -0.27984953 4
-0.43847996 -4.4566717 -0.23329628 3.5
-2.7370505 -4.1808004 -0.26293689 1
-2.7334313 -3.6021342 -0.21713743 8
-2.706074 -3.2218289 -0.21563089 9
-2.6726909 -3.2675133 -0.25758356 12.5
-2.715337 -3.1128576 -0.23811117 17
-2.6573782 -3.1487234 -0.27091134 29.333334
-2.7076011 -2.8210249 -0.25278485 8
-2.6730583 -2.6472449 -0.23483391 4.5
-2.7300658 -2.5702784 -0.27057987 6
-2.7103093 -2.4239922 -0.23126613 8
-2.7094355 -2.3816426 -0.26424706 6
-2.6568625 -2.3300507 -0.26248038 16.5
-2.6307831 -2.2825985 -0.25133514 2
-2.6265435 -1.9842033 -0.27738202 6
-0.32594395 -1.9911368 -0.22662954 9
22.576397 -1.9234023 -0.24952845 51
-2.6325765 -1.8097796 -0.23052941 8.5
22.599361 -1.8990539 -0.23320247 28
22.61993 -1.8334609 -0.26306158 50.111111
-2.6336334 -1.7645967 -0.24863556 4.5
-2.5966048 -1.7559677 -0.25395375 2
22.631744 -1.7636589 -0.29162675 46
22.623268 -1.6400412 -0.23553132 45.333332
-2.6057434 -1.5565805 -0.20287579 8
-2.5889132 -1.5733016 -0.27552122 9
-0.31796253 -1.5179521 -0.27396852 4
15.31613 -1.5033594 -0.2075126 6
16.317299 -1.5172967 -0.20742396 8
17.233673 -1.526788 -0.23024659 6
17.514416 -1.5387356 -0.20707415 6
17.958607 -1.506979 -0.21333691 6
22.667845 -1.5323211 -0.27515545 72.5
-2.625885 -1.4302862 -0.25545108 8.5
-2.5838263 -1.4444815 -0.2776027 3
12.379726 -1.4060626 -0.21624245 2
12.613985 -1.4100225 -0.20292614 2
13.069956 -1.4327869 -0.22753261 3
13.260111 -1.4212289 -0.24098676 2.5
13.454689 -1.4182104 -0.22443998 3
13.537387 -1.4231472 -0.22095183 2
13.641118 -1.4754263 -0.25440273 1
13.755725 -1.4451566 -0.22629209 3
13.829178 -1.4290364 -0.20496079 3
13.942914 -1.4185381 -0.22678979 4
14.0392 -1.4105375 -0.2500709 4
14.147959 -1.4191689 -0.22838825 4.5
14.365746 -1.4368529 -0.24327767 6
14.4251 -1.4547093 -0.23385361 8
14.536137 -1.4292922 -0.21503574 8
14.651445 -1.4563012 -0.20158556 7
14.795545 -1.4770133 -0.22714698 8
14.827768 -1.4491956 -0.20933139 5
15.272886 -1.4379369 -0.21579927 7.5
15.319253 -1.4493681 -0.2130996 6.6666665
15.604954 -1.4041215 -0.21309972 6
16.316362 -1.4336433 -0.20240605 4
16.497671 -1.4302175 -0.20700794 2
16.606136 -1.4591255 -0.22955209 6
16.791864 -1.4050908 -0.2293033 2
17.288189 -1.4696544 -0.27866489 2
-2.5781729 -1.3397866 -0.23350009 12
11.446333 -1.3059813 -0.24792601 4
11.570448 -1.3015239 -0.22864868 2
11.755284 -1.3381445 -0.22251493 2
11.953052 -1.3323669 -0.24582249 2.75
12.029804 -1.3201894 -0.21633291 2.5
12.276651 -1.3120878 -0.23056431 5
12.34357 -1.3348874 -0.24757062 4
12.438362 -1.3555562 -0.26202783 2
12.547962 -1.3196247 -0.22803825 4
12.657037 -1.3395334 -0.23230413 3
12.747701 -1.3346767 -0.23297565 3.6666667
12.856734 -1.3588189 -0.22262888 6.8333335
12.950119 -1.3545585 -0.22379005 6.3333335
13.081625 -1.3480335 -0.21576825 6
13.138577 -1.3585129 -0.2288582 3.5999999
13.275932 -1.3932147 -0.21609569 4
13.376433 -1.3661556 -0.23972265 2.5
13.470381 -1.3424156 -0.23085454 5
13.659348 -1.3281565 -0.2815994 2.5
13.742122 -1.3537228 -0.2386248 4.25
13.831136 -1.3165687 -0.21563978 2.6666667
13.948024 -1.3726754 -0.24352264 6
14.173913 -1.3384873 -0.22216976 2.6666667
14.237755 -1.3501117 -0.2365227 2
14.425243 -1.3356025 -0.23097987 6
14.560824 -1.3567905 -0.21334907 5
14.684023 -1.3157408 -0.27789119 2
14.747499 -1.3449633 -0.23960315 5
14.954075 -1.3870875 -0.25170237 4
15.240189 -1.3775599 -0.22078499 5
16.531483 -1.3537028 -0.22693926 4
22.673464 -1.3090917 -0.2132604 83
-2.5749619 -1.2688171 -0.26041928 6
9.677269 -1.212726 -0.24186391 2
9.9620886 -1.2095464 -0.25773412 3.3333333
10.053535 -1.209676 -0.25672096 2
10.164894 -1.2205566 -0.26604784 6
10.284794 -1.2042127 -0.2850734 5
10.338584 -1.2186776 -0.25457582 4.3333335
10.446705 -1.2371703 -0.24444069 3.5555556
10.53766 -1.2225817 -0.24158876 3.5
10.641905 -1.2327316 -0.25611898 3.7142856
10.733612 -1.2227775 -0.27361539 5.3333335
10.840274 -1.2191716 -0.2311109 7.375
10.947576 -1.249414 -0.25553477 4.4444447
11.05207 -1.2270632 -0.22687082 6.8333335
11.15146 -1.2545414 -0.24902603 4.25
11.256554 -1.2542433 -0.24667814 5.1999998
11.340354 -1.2519507 -0.24592079 6.5
11.456857 -1.2484404 -0.24558108 4.8571429
11.56135 -1.2558658 -0.23477787 4.5
11.651687 -1.2630455 -0.24056482 7.5555553
11.757869 -1.2650645 -0.22864385 8
11.874548 -1.2449381 -0.22923386 3
11.938227 -1.2436585 -0.24696489 4
12.046334 -1.2682699 -0.24693729 3.7857144
12.165735 -1.2454954 -0.25968647 3.5
12.227757 -1.2840152 -0.23765916 5
12.340481 -1.2300358 -0.23538335 3.5
12.47641 -1.2479134 -0.2536861 4
12.568116 -1.2426648 -0.25587669 1.5
12.640628 -1.2675909 -0.22865495 3
12.70441 -1.2004838 -0.22733717 4
12.854045 -1.2726991 -0.25273162 3
12.938814 -1.2661333 -0.23537883 3
13.040354 -1.2661042 -0.25144944 3.090909
13.120996 -1.224308 -0.23525688 4
13.259325 -1.2766685 -0.23041552 4
13.421236 -1.2158022 -0.28656417 4
13.548094 -1.2379311 -0.2699483 4.5
13.651509 -1.2866745 -0.20879455 2
13.792408 -1.2379918 -0.23579676 4
13.943892 -1.2283893 -0.26326981 3.5
14.162461 -1.2540964 -0.27347234 4
14.278188 -1.2672455 -0.25700086 3
14.340607 -1.2382177 -0.2521033 3.5
14.550124 -1.2323117 -0.21424988 6
14.860909 -1.2767962 -0.21906291 6
14.933811 -1.2989691 -0.2430193 4
15.079273 -1.2973557 -0.2370016 3
15.126522 -1.233144 -0.20254323 3
15.682369 -1.2508845 -0.21867836 3
22.683014 -1.2030298 -0.21021344 41
-2.629931 -1.1747049 -0.22536191 9
-2.585382 -1.1432908 -0.24230199 6.75
-0.36078632 -1.172538 -0.25693068 51
-0.29363561 -1.1339829 -0.23642859 5
7.8581252 -1.1005502 -0.28787252 1
8.0686646 -1.1037841 -0.27810335 8
8.2627668 -1.1175002 -0.27562732 1
8.5213642 -1.1080338 -0.23210135 2
8.6686058 -1.108919 -0.21824111 3
8.8588457 -1.1148348 -0.24188183 4
8.9701605 -1.1171203 -0.26298574 3
9.0511551 -1.1112173 -0.25338906 7.5
9.1585541 -1.1234686 -0.24832773 3.5
9.2548237 -1.1347802 -0.25983337 7.4545455
9.3482141 -1.1278223 -0.23099582 12.444445
9.4314632 -1.1681914 -0.25780636 4.1999998
9.5547867 -1.148374 -0.25348243 6.6666665
9.6652288 -1.1603363 -0.24677724 8.333333
9.7657509 -1.1759444 -0.26249743 4.6666665
9.8382921 -1.1456989 -0.24441957 9
9.9526825 -1.1517582 -0.25640172 6.5714288
10.060345 -1.170102 -0.25928462 7.7777777
10.147538 -1.1658067 -0.27357996 4.6666665
10.245658 -1.1541572 -0.23219605 7.5
10.329053 -1.1553687 -0.25192398 6.25
10.437928 -1.1820446 -0.23012595 9.333333
10.547528 -1.148659 -0.26093739 6.1999998
10.679675 -1.11932 -0.23678818 8
10.728911 -1.1619701 -0.26473698 5.8333335
10.8469 -1.1461084 -0.27860004 3.8571429
10.93691 -1.1657307 -0.23667546 8.666667
11.043582 -1.1609323 -0.25913012 3
11.254498 -1.17531 -0.2249378 10.666667
11.376643 -1.1901901 -0.23081259 3.3333333
11.454799 -1.1662617 -0.26729396 4.6666665
11.554042 -1.1610862 -0.27013487 6
11.663081 -1.1749114 -0.258293 4.75
11.86758 -1.1851866 -0.25152731 3.5
11.959687 -1.1220078 -0.25506335 6
12.080399 -1.1690328 -0.25011903 5.25
12.234982 -1.1441381 -0.26677752 2
12.337775 -1.1412274 -0.24935152 3
12.439166 -1.1380816 -0.23195544 2
12.504025 -1.1829038 -0.23463076 4
12.626147 -1.1639591 -0.25646007 3.6666667
12.705724 -1.1578051 -0.21940632 1.6666666
12.963389 -1.1056181 -0.22926116 3.3333333
13.064743 -1.1601613 -0.25032744 2.8
13.147533 -1.1391978 -0.23254579 4
13.212678 -1.1791294 -0.22378075 2
13.351798 -1.1767938 -0.26964504 4
13.442846 -1.1728643 -0.25845441 3
13.626124 -1.1823719 -0.27269351 3
13.758924 -1.1403012 -0.22244783 4
14.380596 -1.1460239 -0.21848918 2
14.905119 -1.1655288 -0.2025876 2
-2.5745573 -1.030943 -0.24472637 7.3333335
-0.4052341 -1.0767086 -0.20288102 51
4.7143312 -1.0240731 -0.28595918 6
5.1617775 -1.0674268 -0.26763111 10
6.4004917 -1.0085623 -0.29235089 1
6.7438903 -1.063525 -0.26018468 5
6.8937564 -1.0412017 -0.28259659 2.5
6.9774427 -1.0188487 -0.27821344 12
7.0488868 -1.0355862 -0.28869572 7
7.1386499 -1.0580331 -0.26135075 4
7.2538981 -1.0225474 -0.26344275 8.2857141
7.3591642 -1.0356677 -0.26117134 5
7.449472 -1.0218804 -0.26831788 11.8
7.5628204 -1.0153365 -0.23967469 12.833333
7.6681528 -1.0361327 -0.25873417 10.2
7.7500601 -1.0454643 -0.265917 8.7142859
7.8472228 -1.0570897 -0.26384324 11
7.9571481 -1.0629327 -0.23807156 7.5999999
8.0448093 -1.0468192 -0.24126934 14.857142
8.1680002 -1.0251864 -0.27362558 7.5
8.2416916 -1.0630054 -0.24034317 9.125
8.3233185 -1.0681927 -0.26956159 5.25
8.4163389 -1.0795323 -0.25580713 3.3333333
8.5630846 -1.0759554 -0.20606256 2.5
8.6572275 -1.0909966 -0.23841377 2.5
8.7289524 -1.0963219 -0.28195491 4
8.8352365 -1.0924331 -0.28029421 2.3333333
8.9579678 -1.0622303 -0.28508157 2
9.0388622 -1.0257816 -0.2990672 6
9.2646389 -1.0708897 -0.27875924 6
9.330101 -1.0867702 -0.24304838 14.333333
9.6495237 -1.06006 -0.28483903 4
9.7676983 -1.0683987 -0.29175693 7
9.849268 -1.073279 -0.28064358 4.6666665
9.9636278 -1.0672427 -0.28472003 6.6666665
10.040462 -1.0545654 -0.27151304 3.6666667
10.160712 -1.0503912 -0.21213892 6
10.37979 -1.062421 -0.29399019 6
10.457623 -1.0745265 -0.26407465 3.5
10.740419 -1.0989773 -0.28963065 4
10.877653 -1.0971324 -0.29546767 3
10.940396 -1.074101 -0.28509161 4
11.053596 -1.0814698 -0.27496564 4
11.145145 -1.0678821 -0.27724543 5.6666665
11.285582 -1.0186543 -0.29586536 6
11.325495 -1.0931594 -0.28951207 4
11.464546 -1.0414265 -0.27280867 2.3333333
11.876347 -1.05102 -0.20339428 3
11.950748 -1.0390735 -0.23952696 3
12.059728 -1.0795782 -0.26859713 9
12.127654 -1.0544565 -0.25006863 5.5
12.221193 -1.0887405 -0.2010119 3
12.311069 -1.024451 -0.24651605 4.5
12.558328 -1.0451578 -0.25978687 2.6666667
12.665782 -1.077338 -0.23848371 3
12.864491 -1.043738 -0.20838775 3
12.92744 -1.0892265 -0.25183201 4
13.180267 -1.0591775 -0.21623486 3.5
13.236135 -1.0417277 -0.22592269 2.6666667
13.368547 -1.0844281 -0.22707209 3
13.482568 -1.0798304 -0.24896917 4
13.945721 -1.0199589 -0.20845719 6
14.106375 -1.0492175 -0.2129114 4
22.693783 -1.0340838 -0.22852845 46
-2.5612895 -0.94250274 -0.27175942 8.666667
3.430748 -0.95996076 -0.2038863 6
4.4045835 -0.9373737 -0.28437835 8
4.5577345 -0.93002295 -0.22882259 5.6666665
4.68573 -0.93780231 -0.27522388 10
4.7746367 -0.95258665 -0.22419825 8.5
4.8574286 -0.91560179 -0.23690259 8.5
4.9746199 -0.9084053 -0.25052965 17
5.0147371 -0.90819776 -0.27793652 8.5
5.2119169 -0.91805029 -0.28391919 9
5.3632755 -0.91187406 -0.26142406 10
5.446136 -0.91269064 -0.25704357 9
5.5323625 -0.90959156 -0.2638762 10.6
5.6462874 -0.92592156 -0.25496694 6.7142859
5.7605748 -0.92225814 -0.20877533 12
5.8425021 -0.94609022 -0.23835358 10.5
5.9377999 -0.93284702 -0.25066227 7.4000001
6.0535331 -0.95395172 -0.27400458 10.5
6.1894493 -0.96228307 -0.27907261 9.5
6.2621765 -0.94834733 -0.25547367 8.75
6.3594546 -0.93722659 -0.24753307 12.666667
6.4590659 -0.95912677 -0.25728375 9.5
6.5427852 -0.96375751 -0.27648368 11.666667
6.6198936 -0.94986153 -0.23390102 12
6.7493792 -0.95519459 -0.2803672 13.5
6.8673515 -0.97406024 -0.27260417 6.8000002
6.9326563 -0.98084784 -0.25465983 13
7.0345263 -0.98125702 -0.26744044 15
7.1476183 -0.97684497 -0.2592262 11.75
7.2413206 -0.99788535 -0.25843969 15.5
7.3532572 -0.99717122 -0.22032514 12
7.4781632 -0.9880659 -0.27760631 13
7.5702353 -0.99865562 -0.24187738 10
7.9882584 -0.97614872 -0.29799095 4
8.0272751 -0.92464238 -0.28657791 4
8.3112612 -0.99192834 -0.28870702 6
8.4868984 -0.98921734 -0.26262623 8
8.9120283 -0.97187495 -0.25645018 6
9.3718185 -0.99854589 -0.27115262 2
9.6185837 -0.9376716 -0.27388412 2.3333333
10.047012 -0.97954327 -0.28518939 8
10.460828 -0.92091995 -0.2606349 3.6666667
10.563572 -0.94633162 -0.278624 3
10.654016 -0.94171172 -0.26509458 4
10.735035 -0.9496659 -0.28333077 5.5
10.990143 -0.99721754 -0.29797328 3
11.03215 -0.96251583 -0.28728732 4.6666665
11.217336 -0.97565711 -0.27152589 8
11.369334 -0.90572804 -0.2490395 3
11.528168 -0.90732026 -0.24626406 3
11.653613 -0.93732548 -0.25720739 5
11.75608 -0.99673945 -0.26178563 8
11.855676 -0.96755993 -0.2724756 4
12.033225 -0.98536325 -0.28436634 8
12.25928 -0.95515156 -0.23340444 4
12.329126 -0.93388498 -0.27924833 3
12.468801 -0.96021128 -0.24493532 4
12.565882 -0.96028107 -0.23895507 5
12.624228 -0.90859449 -0.25287285 3
12.732009 -0.92676204 -0.2581577 4
12.979661 -0.97037876 -0.23838064 2.5
13.027994 -0.90957546 -0.21839564 3
13.14754 -0.96248645 -0.2322026 3.6666667
13.442896 -0.94971287 -0.21831843 5
13.627958 -0.96636224 -0.21778944 2
13.771832 -0.98828441 -0.20566954 4
14.046965 -0.99081105 -0.22504517 2
14.187716 -0.97288603 -0.21019803 3
14.639787 -0.95706391 -0.21807145 3
15.026329 -0.99848783 -0.22998124 1
22.563038 -0.97612768 -0.2063171 1
22.609594 -0.9598155 -0.2618587 35
-6.4526844 -0.81943184 -0.21860997 40
-3.8827815 -0.8070848 -0.26869416 9
-3.6266179 -0.81825471 -0.22512724 10
-2.5553281 -0.84847063 -0.22524221 9.666667
-0.28907382 -0.87123632 -0.28200966 9
2.8532701 -0.84092414 -0.23440942 36
3.0950322 -0.80924124 -0.28114018 15.5
3.1668212 -0.80697775 -0.24694636 11
3.3681066 -0.82755387 -0.26301232 15.5
3.4303861 -0.81203586 -0.25028396 19.799999
3.5156336 -0.81838542 -0.22109991 6
3.66958 -0.81541407 -0.27374515 2
3.7478037 -0.81931722 -0.24388981 2.75
3.8376875 -0.83534962 -0.25534609 3.8333333
3.9635673 -0.83679259 -0.26894534 2
4.0660996 -0.84097451 -0.22893895 2.3333333
4.1360035 -0.84626591 -0.24085219 2.5
4.2637835 -0.86107582 -0.24317162 3.1666667
4.3724775 -0.8606993 -0.25497907 3.4000001
4.4483595 -0.87092072 -0.24887574 4.2857141
4.5457325 -0.86581188 -0.24634019 23.588236
4.6437883 -0.86504829 -0.25175208 15
4.7508049 -0.87697124 -0.27189389 11.714286
4.8581495 -0.87598407 -0.22905484 16
4.9156747 -0.88779444 -0.29013991 9
5.0704083 -0.8834483 -0.25197223 16
5.1439219 -0.8835088 -0.24977434 12.428572
5.2598886 -0.86932957 -0.25710669 12.4
5.3495789 -0.88061231 -0.2736508 11.666667
5.4564586 -0.89086276 -0.24604832 12.75
5.6168184 -0.86405516 -0.24224652 12
5.8387575 -0.89675403 -0.28780487 12
6.148437 -0.87812924 -0.29591411 4
8.7605896 -0.82596135 -0.26856667 3.5
8.8864317 -0.87860525 -0.27922428 6
9.439621 -0.8675983 -0.27771458 5.5
9.5390282 -0.87498188 -0.26984832 3
9.740448 -0.82957214 -0.25784862 6
9.8383331 -0.87226355 -0.28566772 6
9.9544086 -0.84129572 -0.27561513 4
10.248363 -0.87226337 -0.26857412 3
10.438015 -0.85326892 -0.26343611 3
10.53871 -0.83545494 -0.27869928 3.5
10.683468 -0.88449401 -0.21872863 3
10.829992 -0.88088477 -0.27354002 3
10.904991 -0.81314588 -0.20367849 2
11.186502 -0.83397257 -0.28028837 2
11.388121 -0.81193018 -0.24752936 3
11.454023 -0.812047 -0.26236999 3
11.881416 -0.87510473 -0.26017737 3
11.942011 -0.8478893 -0.23974185 2.5
12.092171 -0.85754871 -0.23292308 3
12.157673 -0.89855081 -0.22645187 3
12.289034 -0.8689326 -0.26450893 4
12.758874 -0.85344899 -0.24796858 1.5
13.326691 -0.89141464 -0.22584799 2
13.593645 -0.85650593 -0.2912077 2
14.438825 -0.83477199 -0.21968825 3
22.563641 -0.8723042 -0.29289728 14
22.62121 -0.81323892 -0.28703222 79
-6.5534325 -0.70817345 -0.26982367 24
-6.448638 -0.72629714 -0.25468141 44
-6.3947968 -0.72627807 -0.20972346 28
-5.6174107 -0.71152812 -0.23309377 4
-5.5119753 -0.72705066 -0.26073003 3
-5.4695268 -0.73693633 -0.20198822 4
-4.4745011 -0.73849499 -0.25757667 10.5
-3.5104861 -0.72652507 -0.28378236 27
-3.4618392 -0.74013841 -0.2500098 26.200001
-2.7240934 -0.79335243 -0.29246938 12
-2.5720389 -0.74759221 -0.27502951 10.5
-0.27354136 -0.74138486 -0.2720533 4
-0.14354658 -0.7421419 -0.28155142 19
0.018323898 -0.76691824 -0.29283354 9
1.0553986 -0.70578808 -0.27157539 9
1.2628409 -0.71159428 -0.22814277 8.5
1.3243313 -0.73014081 -0.26812494 8
1.5015197 -0.77695382 -0.29655436 10
1.6599866 -0.72445744 -0.24026243 8.5
1.762392 -0.75112027 -0.27742508 8
1.8462195 -0.70516735 -0.24186173 20
1.9456494 -0.72277462 -0.23880538 7.5
2.0733778 -0.73404819 -0.24816246 11
2.2518313 -0.72667229 -0.22775632 10.5
2.324049 -0.73782212 -0.2388089 5
2.4500699 -0.74293977 -0.25707743 12.5
2.5485923 -0.76295584 -0.24069431 10.6
2.6089015 -0.7619651 -0.25584251 10
2.7709103 -0.7616033 -0.27005285 12.5
2.8204355 -0.77755582 -0.25277305 17.5
2.9413121 -0.7821455 -0.24934883 9.666667
3.0482891 -0.7734369 -0.28460011 8.5
3.1341467 -0.77162218 -0.27698508 13.666667
3.27756 -0.77865148 -0.20594481 6
3.3607447 -0.78921139 -0.2342966 11.285714
3.4098639 -0.76482064 -0.22794241 9
4.4251976 -0.78988653 -0.24744916 1
4.5464697 -0.76507062 -0.29933056 8
4.9057903 -0.78582233 -0.2689859 1
5.6494761 -0.74782789 -0.29511192 8
7.3794036 -0.78613627 -0.29090613 3
7.7127953 -0.71286094 -0.21852103 3
8.1610231 -0.77973062 -0.29840386 6
8.9548454 -0.79824901 -0.28525409 2
9.4485073 -0.73085767 -0.28140959 3.5
9.6739159 -0.77303261 -0.29033181 3
9.8402681 -0.71213752 -0.29191154 4
9.9755688 -0.73357457 -0.29208249 8
10.301747 -0.76096547 -0.2393513 3
10.435791 -0.7591567 -0.24795216 2
10.516357 -0.76205742 -0.29818195 3
10.727746 -0.73700988 -0.29757527 3
11.090771 -0.71277577 -0.24356726 3
11.564195 -0.72928679 -0.29222235 3
11.658913 -0.75476164 -0.25431934 5.3333335
12.019951 -0.73173517 -0.28028727 2
12.152359 -0.73794627 -0.25495702 3
12.202839 -0.74674827 -0.26377255 2
12.36217 -0.74695474 -0.26747784 2.3333333
12.434414 -0.78582501 -0.26019293 2.5
12.808434 -0.75393319 -0.23940924 2.5
13.014482 -0.7781049 -0.25586385 1
13.540926 -0.79234916 -0.24101837 3
14.597922 -0.75159252 -0.2194563 2
14.661396 -0.78880149 -0.23403889 2
15.046989 -0.73971218 -0.20109135 3
15.68104 -0.76505125 -0.21741474 3
22.592144 -0.7951082 -0.22782069 49
-6.5026875 -0.63666999 -0.26238874 30
-6.4406338 -0.62969786 -0.2538816 36.941177
-6.377471 -0.65706205 -0.26679865 35
-5.7825174 -0.66568655 -0.27627531 21
-5.5425615 -0.62577194 -0.25451046 4.1999998
-5.4585061 -0.641599 -0.24457835 5.818182
-4.4177265 -0.68440384 -0.24942875 12
-4.397552 -0.68815917 -0.28468364 12
-3.3079677 -0.65852666 -0.20152085 23
-2.6562366 -0.611808 -0.25978157 41
-2.577034 -0.6341207 -0.25020388 10
-0.3185927 -0.63024068 -0.2770696 60
-0.2429823 -0.62535733 -0.24660616 35.191357
-0.16401103 -0.61283273 -0.25274321 19.857143
-0.042109359 -0.63155633 -0.25131851 10
0.041945696 -0.63054961 -0.24643075 8.3999996
0.14275751 -0.62709934 -0.21988022 12.2
0.24450603 -0.61710018 -0.25809577 10.25
0.35346964 -0.61859906 -0.2596738 13.2
0.44869414 -0.62797821 -0.2379065 13.833333
0.54335892 -0.6322695 -0.25253677 10.5
0.66502941 -0.64547783 -0.25438863 11
0.73331529 -0.65324759 -0.26163942 12
0.8620947 -0.65279263 -0.27882898 10.333333
0.93210506 -0.65680301 -0.24411476 11.2
1.0188769 -0.67123443 -0.2153925 9
1.1172645 -0.65080833 -0.26981425 13.5
1.238905 -0.67042136 -0.25812685 13
1.3519018 -0.68093288 -0.20364574 6
1.5497353 -0.68858111 -0.2605722 12.5
1.6577053 -0.65757424 -0.23876745 18.666666
1.7458968 -0.68242693 -0.26958954 19.5
1.8487186 -0.68775505 -0.23996076 24
1.989264 -0.68563229 -0.2922554 17
3.3668408 -0.62102884 -0.26765358 26
3.648335 -0.60627925 -0.22445752 2
7.2108164 -0.62791514 -0.29468906 3
7.7586093 -0.60363317 -0.24152756 3
8.5115528 -0.65617293 -0.29519087 2
8.9810534 -0.63932115 -0.25951982 3
9.0142765 -0.68723351 -0.29352 3
9.6003475 -0.65382421 -0.29201621 3
9.7946405 -0.62369376 -0.2558769 3
9.8526525 -0.67185265 -0.28237274 3
9.9900112 -0.65201718 -0.24785504 3
10.260739 -0.62749761 -0.25980878 3
10.46244 -0.63406736 -0.2837114 3
10.508695 -0.66068584 -0.27328667 2
10.612761 -0.69801825 -0.23438273 3
10.712936 -0.62602472 -0.27908123 3
11.64695 -0.67973912 -0.22409761 2
11.888982 -0.69402301 -0.24659418 3
12.04504 -0.62571573 -0.27784139 2
12.5783 -0.62198293 -0.22629076 2
12.716175 -0.6584174 -0.21418117 3
14.426706 -0.63959181 -0.21729322 2
14.559071 -0.68500143 -0.20450313 2
15.09438 -0.60594887 -0.20523563 2
-6.5430264 -0.55272394 -0.25244194 30.642857
-6.4568686 -0.56297994 -0.2585665 30
-5.5272131 -0.55594212 -0.25726005 3
-5.4033055 -0.59766829 -0.23339105 13
-3.3623409 -0.50991595 -0.25934991 22.5
-3.2776268 -0.53591686 -0.24901426 19
-3.0460587 -0.50671554 -0.26604041 9
-2.9727783 -0.50573158 -0.25273058 11
-2.646455 -0.55936289 -0.24234068 25
-2.5447769 -0.5255428 -0.25732735 23.366667
-0.24519099 -0.57376254 -0.25021708 37.007248
-0.16635348 -0.57542741 -0.26182565 22.346153
-0.066239014 -0.57720184 -0.26794901 13.333333
0.098788917 -0.59463584 -0.27536964 15.333333
0.1736511 -0.59923404 -0.28207925 12
0.24288565 -0.58776456 -0.21581447 19
0.44531852 -0.5984233 -0.28642181 13
3.9754658 -0.56257129 -0.288176 3
7.8612537 -0.52292311 -0.29106092 3
8.7505388 -0.58920717 -0.27692631 3
8.8523293 -0.58958739 -0.29956391 3
8.9364529 -0.53470051 -0.27509293 3
9.4265728 -0.50152647 -0.27001894 3
10.132296 -0.59745342 -0.28041115 3
10.428342 -0.58787644 -0.29547226 1.5
10.765499 -0.55007976 -0.28211823 2.5
11.008711 -0.56626987 -0.2828657 2
11.364645 -0.57959491 -0.26997101 3
11.726627 -0.55960244 -0.27373946 2.5
12.090475 -0.54454046 -0.26894027 1
12.684371 -0.53619832 -0.24558167 3
12.763009 -0.5376876 -0.24288309 3.5
13.348189 -0.5253424 -0.23311688 3
13.552751 -0.50275934 -0.27992964 3
13.741821 -0.52868402 -0.21663646 2.5
14.028627 -0.52580982 -0.21541376 3
15.111805 -0.51163733 -0.20047323 3
15.53009 -0.51201737 -0.20077311 3
18.20211 -0.55945587 -0.22955292 3
-6.5575194 -0.44677913 -0.25733081 32.666668
-3.5124464 -0.49575239 -0.23260751 31
-3.4308045 -0.43134889 -0.25354415 30.921053
-3.3570406 -0.43026558 -0.25850523 22.423077
-3.2739925 -0.44377342 -0.26752996 12.333333
-3.1525214 -0.44129908 -0.21202204 15
-3.0665653 -0.44516325 -0.26499373 10
-2.9315701 -0.44678903 -0.28569725 7
-2.8474417 -0.44257277 -0.22814736 11
-2.7494316 -0.4563697 -0.24866574 9.25
-2.6199081 -0.47206363 -0.2488641 18.5
-2.553041 -0.4662714 -0.25487652 23.387096
-2.4984858 -0.49393797 -0.2332074 13
2.5967631 -0.40492171 -0.28895274 28
7.0682383 -0.44769549 -0.26060492 33
7.3387613 -0.40799981 -0.29406267 2
7.8355455 -0.49867108 -0.21811146 4
8.841773 -0.46122459 -0.28759515 3
8.9637642 -0.42162618 -0.2903347 3
9.7085886 -0.46297121 -0.29544902 2
9.9751034 -0.48878092 -0.29411101 3
10.377671 -0.44204137 -0.27780932 2.5
10.544824 -0.40245491 -0.28398782 2
11.602744 -0.44550377 -0.26351118 3
12.03976 -0.45519331 -0.24231274 3
12.368204 -0.46423131 -0.26655871 3
12.430044 -0.42766076 -0.26314065 3
12.579217 -0.46698236 -0.25775006 2.5
13.244909 -0.48242414 -0.20518276 3
15.06015 -0.44225806 -0.21008381 3
15.100969 -0.44258067 -0.22946009 3
20.543789 -0.42264998 -0.23310471 12
20.641048 -0.45626342 -0.26650226 1
22.559978 -0.40642166 -0.20903899 1
-6.6647692 -0.31978542 -0.24676748 9
-6.5384669 -0.32467175 -0.2436635 38.9375
-6.4935226 -0.33280849 -0.27601725 34.5
-3.4311967 -0.35317492 -0.2338199 17
-3.3726692 -0.38394144 -0.23142876 26.5
-3.1575356 -0.39570057 -0.27351171 15
-2.6305523 -0.35847592 -0.28444326 41
-2.5976019 -0.38325238 -0.22889636 31
0.31426644 -0.33747181 -0.22403456 12.25
0.66417968 -0.32338905 -0.25604209 9.5
0.77758801 -0.3184011 -0.27129683 9
0.80496955 -0.30174065 -0.20826933 7
1.7587636 -0.37596285 -0.22341423 10
1.8585382 -0.30419588 -0.21983005 9
1.9081078 -0.33992994 -0.25784662 10
2.0698681 -0.35318309 -0.24321888 7.5
2.1357107 -0.3019411 -0.27516925 9
3.061337 -0.33953625 -0.27512145 23.25
3.1471877 -0.30216116 -0.20773926 6
6.0553002 -0.34801155 -0.29945344 3
7.1557384 -0.3689822 -0.26580536 10
7.5047317 -0.33781528 -0.29606393 3
10.35264 -0.39606833 -0.29872087 2
10.843683 -0.31954101 -0.26244742 3
11.227607 -0.30159122 -0.29346579 3
11.575005 -0.3507469 -0.27235949 1.5
11.662252 -0.32858598 -0.24189052 3
11.745803 -0.34995568 -0.25506938 2.6666667
11.87755 -0.37561536 -0.26377323 3
12.613613 -0.31949961 -0.25471348 3
12.73263 -0.36448574 -0.27542567 3
12.916876 -0.30928135 -0.21041083 3
13.5826 -0.30133575 -0.28661591 3
14.707587 -0.30944318 -0.20861343 3
20.579811 -0.3628031 -0.24041545 16.75
20.61858 -0.35181099 -0.249951 12.3
-7.3047152 -0.20824623 -0.20335305 54
