# .PCD v0.7 - Point Cloud Data file format
VERSION 0.7
FIELDS x y z intensity
SIZE 4 4 4 4
TYPE F F F F
COUNT 1 1 1 1
WIDTH 1285
HEIGHT 1
VIEWPOINT 0 0 0 1 0 0 0
POINTS 1285
DATA ascii
-1.6940159 9.814518 2.7198107 28.791668
-1.4766721 9.8089209 2.7242479 25.666666
-1.3674899 9.8067427 2.6143582 30
0.12959409 9.818265 2.6440759 24.666666
-5.6117902 10.166297 2.7162344 12
-5.5033388 10.151668 2.7177794 12.719999
-5.3122149 10.142014 2.7108524 12.860001
-4.9088392 10.139544 2.712059 15.5
-4.6963511 10.105802 2.7173269 15.892858
-4.5014229 10.084783 2.6996663 12.166667
-4.3442068 10.067145 2.6570222 10.114286
-4.1049299 10.045422 2.6532583 7.9642859
-3.9234376 10.04427 2.7658899 11
-3.7918141 10.040384 2.7522674 11
-2.0058122 10.06937 2.6402154 10
-1.9328125 10.095703 2.6254776 18.75
-1.7163022 10.102142 2.6113927 27.5
-1.302578 10.08777 2.6204758 23.4375
-1.1344514 10.119599 2.6083972 13.25
0.28286856 10.057661 2.6598632 21.666668
-5.5464115 10.245773 2.7468808 12.666667
-5.3004889 10.237363 2.7385261 12.666667
-1.485384 15.229705 2.608294 9.166666
-1.2548054 15.211746 2.6128809 9
-1.0668058 15.205453 2.6191068 10
-0.9461652 15.209778 2.6250818 12
-0.85026777 15.969975 2.6107228 8.5
-1.0784696 16.021324 2.6139355 7.8888888
-0.93573046 16.024887 2.6187646 9
-1.2723519 16.390465 2.6319859 6
-0.93851697 16.398836 2.62973 8
-1.1055188 16.429865 2.6221988 7.7777781
-0.94376898 16.479099 2.6020422 9.166666
-1.6151111 16.708715 2.7136116 7
-1.4863644 16.645416 2.6564524 7.666667
-1.3331931 16.701193 2.7187757 2
0.91310835 16.683573 2.7419462 6.5
-1.0534457 16.997887 2.693193 10
-1.6094785 17.181627 2.6869769 10
-1.4561347 17.13884 2.6896586 9
-1.2483839 17.056585 2.6896381 9.5
-1.1109331 17.008812 2.6910093 11
-1.8061669 17.313103 2.6969104 12
-1.6740682 17.325056 2.6864305 8
-1.5160029 17.318447 2.6898165 8.3000002
-1.2791145 17.303099 2.6943769 9
-1.1468685 17.287169 2.6959891 9
-0.94953275 17.253044 2.6987472 9
-1.5555031 17.960936 2.637661 6
-1.0554351 17.849043 2.6458409 8
-1.883539 18.341156 2.6106081 11
-1.6641833 18.370968 2.612757 9
-1.4089575 18.297245 2.6585009 9.666667
-1.1915551 18.276274 2.661902 9.1999998
-0.94534945 18.251049 2.6661713 10
-1.9832841 18.477226 2.6319141 13
-1.4444368 18.420916 2.6182299 8.75
-1.2947453 18.457283 2.6220295 9
-0.17508355 18.889097 2.6491082 80
-1.4378709 19.187895 2.6267231 10
-1.2522407 19.131691 2.6230438 8.666667
-1.0981379 19.10709 2.6235926 8
-0.88305807 19.075283 2.6254084 8.5
-1.5034565 19.234446 2.6320798 12
-0.85326111 19.231852 2.63568 9
-0.76661456 19.216671 2.6353278 8.5
-1.6828237 19.776445 2.6804135 11.5
-1.4469044 19.804747 2.6843686 9
-1.2635846 19.857521 2.6912301 8
-1.0430708 19.90934 2.6981423 8.666667
-1.2930086 20.537056 2.6216598 9.75
-1.030393 20.586994 2.6247983 4.5
-0.86145979 20.551838 2.6268559 8
-0.68168402 20.482553 2.6270988 8.5
-0.5628072 20.497458 2.7071226 97
-1.2545028 20.721628 2.629734 11
-1.1252825 20.641151 2.6252992 9
-0.92448622 20.61758 2.627883 8.5
-0.71016759 20.672915 2.6328852 9
-0.3244918 20.645542 2.7273812 90
-0.12677407 20.713795 2.7365773 71.333336
0.11054885 20.784243 2.745584 54.5
-1.4056208 20.916565 2.7007179 8
-1.2656393 20.919109 2.70415 8.5
-1.1351106 20.945398 2.7528827 9.333333
-0.98135072 20.948513 2.7439175 10.5
-0.79956031 20.995098 2.7251418 8
0.31176972 20.825842 2.7513163 40.333332
0.4579103 20.884308 2.7595832 26
-1.4979622 21.111801 2.7025344 10
-1.3824419 21.122734 2.664912 11.25
-1.1984251 21.159124 2.7188079 7.3333335
-0.93394768 21.116444 2.7217681 7.5999999
-0.74040759 21.080513 2.7235796 8
-1.6452925 21.282967 2.6626382 12.5
-1.436041 21.329376 2.6826119 9
-1.2565761 21.272532 2.6627636 8.5
-1.0777674 21.313293 2.6852067 8.666667
-0.99537677 21.290674 2.6433365 8
-0.77754307 21.29999 2.6449544 8.666667
-1.6575569 23.888756 2.6069553 10
-1.5143986 23.909924 2.6081862 8
-1.2905338 23.950485 2.6110926 8
-0.25445759 23.979082 2.6161284 98
-0.082396626 24.116673 2.6258051 96.5
0.22463083 24.289019 2.6337836 75
0.44371557 24.383257 2.6366334 43.5
0.62567568 24.50651 2.6445718 28
-1.2822182 24.914768 2.6466911 11
-1.1187712 24.856514 2.6448166 3.5
-0.99839902 24.838839 2.6463938 1
-1.0139666 25.797138 2.655612 7
-0.79109353 25.767075 2.6521933 14.333333
-1.3177437 25.918503 2.6649413 19
-1.1930825 25.822121 2.6585755 12
-0.69833159 25.979286 2.6015675 6
0.86945283 26.077766 2.6164639 13
1.0085605 26.164696 2.6357887 1
-0.50780094 28.585022 2.676538 9
-0.84741044 28.626976 2.6849568 6
-0.70021892 28.66189 2.6863985 7.5
-1.0259224 28.962881 2.7623203 8
-0.88155085 28.84874 2.7609971 1
-0.76503265 28.860502 2.6077449 6
-1.2201658 29.051737 2.7578766 8.5
-0.68374324 30.562576 2.7417212 5
-0.48926646 30.55368 2.7462108 12.5
0.72249854 37.577595 2.623997 46
0.96312606 37.558964 2.6308188 90
1.1481088 37.462177 2.6311817 88
0.54043972 37.639389 2.6223583 90
0.74044728 37.972004 2.6019905 147.5
0.94054151 38.015591 2.6051276 101
0.76922476 41.778103 2.6356051 90
0.91257226 41.768055 2.6378436 90
1.0762345 41.933609 2.6515293 90
1.2482888 42.28315 2.6769984 87
-0.12873662 42.523903 2.6647258 47
0.087403893 42.53101 2.6694546 90
-0.090465069 46.115604 2.7584095 44
0.087188363 46.140572 2.6841803 48
0.23826373 46.128502 2.685209 49
0.42954838 46.117496 2.6030722 41
20.079523 -2.8035209 2.9472785 4
21.636862 -2.808707 2.9717526 7
21.988533 -2.8401046 2.9493172 6
16.037464 -2.6229448 2.9123387 1
17.340736 -2.6162412 2.9405823 4
18.476887 -2.6963573 2.9054084 2.5
19.9193 -2.6695952 2.9528503 2.5416667
20.088533 -2.6685462 2.949281 4.6190481
20.338791 -2.7349138 2.9281635 5.5
20.700907 -2.739213 2.9639373 4.1999998
20.900452 -2.61992 2.9580486 1
21.043461 -2.7045515 2.9560466 2.9166667
21.28665 -2.680361 2.9390702 5.4400001
21.461632 -2.7179146 2.9653578 4
21.672464 -2.6822264 2.9602013 7.2428575
21.917393 -2.6819596 2.9937506 8.25
22.017349 -2.6613574 2.9376326 8.625
22.234659 -2.6724339 2.9623585 9.416667
10.519606 -2.5180798 2.8460827 5.583333
14.103841 -2.4399076 2.8221869 9
14.251616 -2.5055952 2.8665054 8
15.476907 -2.4423406 2.8616829 9
16.045504 -2.5105858 2.8981972 1.5714285
16.436525 -2.4142137 2.8948452 7.3333335
16.67317 -2.458746 2.8876801 3.5666666
16.866245 -2.5334539 2.8975742 4.166667
17.109245 -2.4699526 2.8817799 4
17.350512 -2.497462 2.9117413 6.2984128
17.521519 -2.5190084 2.8940647 6.3809524
17.737253 -2.4897621 2.8603406 5.0333338
17.96533 -2.507787 2.8503864 6.6666665
18.07885 -2.506346 2.8706934 7.4444442
18.333082 -2.4221981 2.8721263 8.333333
18.526224 -2.4313042 2.8992317 7.1666665
18.622566 -2.5000267 2.8965626 8
18.805937 -2.4402864 2.9183013 4.5
19.159229 -2.4757462 2.9156187 3.5
19.25252 -2.4532428 2.9237809 5.333333
19.475729 -2.4678011 2.9398842 6.7083335
19.938833 -2.5107334 2.937912 5.5555553
20.107409 -2.4980915 2.9453583 6.0769229
20.276443 -2.5685792 2.8894374 10
20.591682 -2.440887 2.9228058 4
20.787424 -2.5563226 2.9667375 8.7142859
20.921562 -2.5803668 2.9593773 1
21.147198 -2.4340112 2.9709599 9.6000004
21.334808 -2.5187387 2.9438784 10
21.514503 -2.5920904 2.9677396 7.3333335
21.700409 -2.531009 2.9567623 7.1999998
21.984724 -2.531579 2.9952667 9.666666
22.10051 -2.4931612 2.9351056 9.666667
22.279165 -2.4934907 2.9636676 9
11.861647 -2.3332875 2.866703 5.25
12.204891 -2.2370214 2.8825693 10
13.213487 -2.2477612 2.8014636 12
13.508342 -2.3151622 2.8295975 4.5
13.62077 -2.2450602 2.8423352 4
14.123519 -2.3763962 2.8235898 9
14.316496 -2.2966099 2.8416743 8.25
14.425735 -2.2174549 2.8411911 9.8000002
14.92753 -2.2435567 2.8075919 5.25
15.493834 -2.3886495 2.8623533 8.5
16.148977 -2.328588 2.8733482 5.0999999
16.27585 -2.2794142 2.8669851 5.1527777
16.538975 -2.288837 2.8347597 6.4000001
16.655247 -2.3161964 2.8812087 4.1999998
16.85251 -2.2490041 2.8644836 5.6666665
17.09433 -2.3435345 2.863657 4.0999999
17.287117 -2.3006253 2.9071097 9
17.45834 -2.3069487 2.9009879 9.5
17.702236 -2.3238158 2.8578014 8.25
17.893522 -2.3420875 2.8719904 11.011111
18.112623 -2.2883828 2.8749154 6.6699996
18.468645 -2.3341713 2.8785925 7.1666665
18.684856 -2.3085549 2.8988698 7.2666674
18.924194 -2.3181143 2.9307826 2.7851851
19.089659 -2.2842841 2.9183044 5.125
19.322088 -2.2850642 2.923826 7.333333
19.494614 -2.3053286 2.9354641 3.6666667
19.646275 -2.2215731 2.9364309 24
19.977802 -2.258635 2.9141488 8.25
20.131941 -2.3069189 2.9211791 6.752564
20.254423 -2.2869601 2.9620032 7.5
20.569818 -2.3192995 2.9485064 7
20.678387 -2.3459606 2.9337788 6.5999999
20.940813 -2.2868354 2.9661684 8.6111107
21.210133 -2.3100417 2.9601197 9.625
21.520275 -2.2950246 2.9181497 16.726191
21.695852 -2.3102362 2.9510694 8.916667
21.842873 -2.2875581 2.9669065 9.145834
22.11145 -2.3098187 2.964901 9.604167
22.29439 -2.342742 2.948637 8.666666
10.686741 -2.1797361 2.861156 8.5
11.887074 -2.036289 2.870307 8.5
12.305769 -2.1121268 2.8519592 11.5
13.018004 -2.1222737 2.8140521 6.916667
13.293143 -2.1622899 2.8054426 7.3125
13.468234 -2.1029902 2.8049157 12
13.665706 -2.0784619 2.8286574 6.3333335
14.380376 -2.1565523 2.8194904 8.833334
14.453184 -2.0720749 2.8371103 9.125
14.76223 -2.0138373 2.8150678 10
14.906395 -2.1151404 2.8197844 6.5999999
15.098537 -2.1989713 2.8421221 1.6666666
15.477251 -2.1174078 2.8387437 7.0625
15.918863 -2.1219795 2.8690426 4.4749999
16.153358 -2.044785 2.86696 5.75
16.31282 -2.0897014 2.8626423 6.4562502
16.510992 -2.1367052 2.8559697 7.371429
16.655619 -2.0822194 2.8696439 8.0555563
16.896786 -2.1260993 2.8407154 9.5666666
17.05723 -2.1002779 2.8483317 10.7
17.28698 -2.0764446 2.8821149 7.75
17.49645 -2.1054111 2.8938558 8.1833334
17.74737 -2.116255 2.865041 7.7333326
17.904642 -2.099035 2.8734434 9.666667
18.119629 -2.1483357 2.8678887 12
18.237038 -2.1029027 2.8807254 9.666667
18.565865 -2.0443735 2.9007497 9
18.71311 -2.0929003 2.8906009 8.6345243
18.898346 -2.1361964 2.9245145 3
19.069363 -2.1085424 2.9272227 5.25
19.301123 -2.1576459 2.8854539 4.3888888
19.532192 -2.1001892 2.9186988 8.4499998
19.638813 -2.0767026 2.936322 18.666666
20.103773 -2.1015761 2.9074674 12.211538
20.264639 -2.0884964 2.8969369 9.9743586
20.713921 -2.1103826 2.9497559 8.25
20.886339 -2.081964 2.9509335 8.625
21.023174 -2.0816481 2.9439564 9.5
21.284405 -2.109561 2.9600906 8.916666
21.585819 -2.1652992 2.9410889 9
21.709332 -2.0051129 2.9703243 8
21.912128 -2.0481582 2.9631212 8.333334
22.112116 -2.0738497 2.9920709 9
22.281567 -2.1154881 2.9580734 8.9333334
22.423851 -2.0032706 2.991019 3
10.79426 -1.8628645 2.8680084 6
12.416172 -1.9530729 2.8208094 12
12.948631 -1.9059637 2.8005695 9.3999996
13.343443 -1.8705503 2.8329191 14.25
13.488208 -1.8761415 2.8316216 11
13.701534 -1.9178072 2.8160117 7.7000003
14.451088 -1.8916484 2.8167515 8
14.767569 -1.8919271 2.815855 10.5
14.930469 -1.8956614 2.8238537 8.7333336
15.094614 -1.8982458 2.8158581 8.4400005
15.55886 -1.8273067 2.8517694 13
16.118004 -1.8797312 2.9388566 18
16.295876 -1.9220345 2.8462508 10.825
16.533705 -1.8817805 2.8564138 9.333333
16.684427 -1.9183998 2.8644185 10.633333
16.925304 -1.8970046 2.8605485 6.875
17.133053 -1.8503523 2.8749373 5.875
17.301573 -1.9173125 2.8953745 9.9444456
17.498337 -1.9190199 2.8975315 10.928572
17.761292 -1.9722445 2.8676474 8.5
17.853598 -1.9066206 2.8447666 11
18.132097 -1.9815904 2.8964479 5.3333335
18.274347 -1.9047992 2.8824656 8.1599998
18.561817 -1.8976474 2.8920774 14.083334
18.715422 -1.8987097 2.89031 10.291666
18.897881 -1.8713223 2.9159935 8.7222223
19.085178 -1.886658 2.9366612 7.7777777
19.322538 -1.8967711 2.900713 9.25
19.503164 -1.895985 2.9133232 5.833333
19.640436 -1.8618904 2.9192829 9.1333332
19.938709 -1.9784188 2.8510754 1
20.093502 -1.8841619 2.911412 8.6750002
20.262094 -1.8772445 2.899014 7.8012824
21.092321 -1.8681837 2.9691145 10.722222
21.311451 -1.8569102 2.9533951 10.333333
21.526278 -1.9005446 2.9400303 10.791667
21.653759 -1.9351152 2.9153969 8.6000004
21.890636 -1.9248936 2.9708526 9.1999998
22.176168 -1.8605313 2.9928744 18.5
22.319759 -1.8743541 2.9096291 15.43
22.50646 -1.8504493 2.9295781 55.595238
24.009279 -1.8215179 2.9911582 1.6666666
10.685907 -1.6776006 2.8416233 2.6666667
11.799934 -1.6170559 2.8533003 2.5
11.881484 -1.7509527 2.8688173 9.5
12.493101 -1.7230204 2.8250253 9.333333
13.1324 -1.7968154 2.8076386 8.666666
13.325706 -1.7627093 2.8524001 25.5
13.533978 -1.6831644 2.8489563 10.25
13.736876 -1.6905644 2.8034482 6.5
13.803205 -1.7070611 2.8283439 6
14.48194 -1.6995971 2.8106828 9
14.748341 -1.7654036 2.8106892 9
14.957391 -1.6932127 2.8900847 12
15.040479 -1.6844441 2.8059487 10
15.507759 -1.6306809 2.8623748 13.5
15.789715 -1.7811083 2.8049581 8
15.857211 -1.7553639 2.826355 8.4666662
16.02084 -1.7644415 2.81918 8
16.331497 -1.6485147 2.8469176 10.875
16.511421 -1.7125442 2.8626578 9.333333
16.702795 -1.6867198 2.8535271 7.3293648
16.930822 -1.7441068 2.8525403 7
17.042253 -1.7831337 2.8460267 16
17.333155 -1.700825 2.8807709 5.375
17.507889 -1.6887707 2.8816543 16.5625
17.666706 -1.6683917 2.883635 8.515152
17.906845 -1.6941574 2.8631017 8.7833328
18.034027 -1.7000244 2.8601041 9.5
18.314539 -1.713114 2.8634708 8.1833334
18.41913 -1.6424432 2.9054737 11.8
18.728722 -1.7130405 2.8985553 11.983334
18.869381 -1.6768492 2.9056513 13.144048
19.114487 -1.6758438 2.9056766 11.456462
19.481882 -1.6714636 2.9126594 11.838096
19.651594 -1.6572454 2.9121757 19.981907
19.892097 -1.642225 2.8494253 26
20.091183 -1.7058613 2.8877697 14.877957
20.265903 -1.6979523 2.885098 14.183334
20.775383 -1.7557104 2.9479508 11.166666
20.840992 -1.6677096 2.9292016 20.904762
21.122339 -1.728261 2.9663141 21.761904
21.344707 -1.7422404 2.9080639 11.5
21.484375 -1.6960193 2.9562712 20.096294
21.682661 -1.6901799 2.9206154 21.055555
21.903736 -1.6922947 2.9467268 18.870834
22.101812 -1.6857399 2.9164617 30.041666
22.278234 -1.727116 2.9258988 22.586363
22.526377 -1.7283071 2.8980551 31.505318
22.652905 -1.673788 2.9022415 18.966665
22.893005 -1.6723273 2.9292789 1.8
23.067003 -1.6803333 2.9394708 2
25.057457 -1.6863779 2.8861327 2
29.928648 -1.6731316 2.9877942 1
11.836991 -1.5411165 2.8605187 1
12.555883 -1.511745 2.8239782 7.125
12.602398 -1.58776 2.8352604 1
13.479855 -1.4861416 2.8466535 9.25
13.637708 -1.4247797 2.8614597 22.9
13.859315 -1.4280032 2.8152692 10.9375
14.04907 -1.4854163 2.8762391 17.666668
14.495604 -1.5816231 2.8074489 10
14.661259 -1.5319862 2.8648643 20.055555
14.986725 -1.4355074 2.9615853 16.799999
15.05981 -1.512754 2.8191383 15.492063
15.286854 -1.4880511 2.8550086 22.633333
15.453723 -1.5153759 2.8501427 15.633333
15.94189 -1.4539808 2.8407545 21.255554
16.118896 -1.4982456 2.8722615 19.416668
16.310982 -1.4588825 2.8807614 22.698809
16.4921 -1.5250263 2.8431242 13.083333
16.692778 -1.4944737 2.8687835 13.264999
16.878521 -1.4807407 2.8429663 18.719046
17.089434 -1.4883299 2.8411281 15.742064
17.213633 -1.4473414 2.8407881 23
17.520163 -1.477146 2.8912334 24.189625
17.721243 -1.5221947 2.8749745 20.571428
17.922482 -1.4976333 2.8486388 23.450001
18.091015 -1.4921778 2.8681879 20.824074
18.32299 -1.507223 2.855942 22.958334
18.544634 -1.4987727 2.8892453 21.197279
18.729322 -1.4896107 2.881397 24.674242
18.904572 -1.5132746 2.9076273 23.599998
19.126875 -1.511977 2.8956151 26.601295
19.258352 -1.490117 2.9040053 26.584129
19.490252 -1.5134089 2.9001937 18.369049
19.696379 -1.4714323 2.8903468 25.497437
19.879871 -1.5047771 2.8972473 19.033333
20.08584 -1.5117923 2.8761599 29.775757
20.269611 -1.4773277 2.8855886 24.780077
20.741344 -1.5284685 2.8816204 19.666666
20.895411 -1.5881196 2.9057271 28.5
21.153929 -1.52771 2.9581175 33.266666
21.381565 -1.4994606 2.9395905 22.35
21.501228 -1.4927188 2.9477615 21.833332
21.726875 -1.4869503 2.9011407 21.922222
21.898165 -1.4733043 2.9463542 24.751514
22.059814 -1.4985058 2.9291077 25.879999
22.293165 -1.5185016 2.9301758 27.110716
22.487198 -1.4860364 2.9242229 19.407843
22.664648 -1.4874038 2.9010184 4.6083331
22.994007 -1.5987806 2.9063258 1.5
23.108938 -1.5067677 2.965487 2
23.300486 -1.454693 2.938411 1
23.752892 -1.4364588 2.9667454 1
23.828133 -1.4903567 2.9861875 1
24.100819 -1.4261496 2.9760547 2
24.399672 -1.4846746 2.9877472 2
24.427601 -1.4549705 2.9923544 2
25.106808 -1.5510153 2.9816389 2
29.901062 -1.5642902 2.9886599 22
12.167715 -1.2241311 2.8518405 21.5
12.565903 -1.2842039 2.8248243 18.833332
12.619944 -1.2647696 2.8971262 23.875
12.9727 -1.2499107 2.8112812 15.5
13.086366 -1.2285123 2.8034379 24
13.419978 -1.3221823 2.8570304 23
13.680616 -1.2767307 2.8477206 24.75
13.887898 -1.2808462 2.8314345 26.62381
14.119246 -1.2992034 2.8792045 17.583334
14.259127 -1.2910213 2.9351397 14.2
14.557392 -1.3018852 2.803921 27.138891
14.670785 -1.3489681 2.8446963 15
14.990467 -1.2349768 2.9569588 28
15.080664 -1.375252 2.8155317 30.333332
15.348192 -1.3774228 2.8552969 31.25
15.491405 -1.3119816 2.827358 24.270832
15.621082 -1.3087077 2.8301497 24.5
15.945395 -1.2313304 2.8340139 34.011906
16.09989 -1.3074626 2.8417728 24.483334
16.3389 -1.2814846 2.8630862 25.518095
16.519806 -1.3023956 2.8440559 24.081903
16.737698 -1.3242255 2.8599262 23.603571
16.898478 -1.2881058 2.8391471 25.429893
17.114632 -1.2886912 2.8363161 23.392591
17.248116 -1.2904115 2.8360407 22.895834
17.509417 -1.281496 2.8784084 23.309523
17.645077 -1.3008441 2.8684251 29.215874
17.896538 -1.3147076 2.8655145 26.469231
18.060833 -1.2785618 2.858798 27.260256
18.321857 -1.2795017 2.8528383 21.969999
18.529512 -1.3186042 2.8564694 24.690475
18.708824 -1.3187025 2.8946879 26.103029
18.88324 -1.3043698 2.8743501 24.402599
19.121653 -1.2754062 2.9105191 29.900265
19.280035 -1.3070821 2.8816562 26.610823
19.521818 -1.3213291 2.8966973 23.880001
19.693947 -1.2805148 2.8806276 24.395454
19.879646 -1.2596796 2.9026995 25.612499
20.089907 -1.305882 2.8581188 36.585094
20.279068 -1.2934451 2.8811641 26.558332
20.410507 -1.2147123 2.8618128 27
20.686451 -1.2478364 2.9829249 17
20.885254 -1.3330736 2.9146886 32.886902
21.150379 -1.2989126 2.9503922 27.450001
21.215292 -1.3309354 2.9709015 34.666668
21.498226 -1.2888007 2.9460907 22.09074
21.728521 -1.2771035 2.9234383 26.799999
21.893991 -1.2902951 2.9386508 24.357777
22.086643 -1.2915424 2.9074254 26.809998
22.319237 -1.3353952 2.9232996 32.683861
22.488403 -1.2895616 2.9271896 17.024563
22.642069 -1.295996 2.9047465 8.2240744
22.835587 -1.3291525 2.9652297 2
23.151297 -1.3121982 2.9626379 2
23.221079 -1.2621896 2.9759607 2
24.120741 -1.2977264 2.9764214 2
25.106722 -1.2802662 2.9086268 1.875
25.214008 -1.3560758 2.8958499 1
12.145071 -1.0607657 2.8445344 23
12.550982 -1.0607011 2.8203068 23.25
12.667897 -1.0494895 2.8768396 27.4
12.969939 -1.0842235 2.8095257 22
13.077852 -1.1429482 2.8233593 22
13.427493 -1.1303287 2.8339379 25.625
13.719374 -1.0854305 2.8415253 26.76
13.953169 -1.0592756 2.8088794 33.666668
14.250835 -1.0254537 2.8936098 28
14.70053 -1.1343411 2.8384356 23.7875
15.116533 -1.0738674 2.8440771 20.773333
15.200236 -1.0001428 2.812156 40
15.495315 -1.1032274 2.8336377 25.4
15.615631 -1.0987784 2.8219967 24.555557
15.953849 -1.0561872 2.8316905 37.125
16.167475 -1.1206603 2.8534038 29.25
16.320112 -1.0938579 2.8223116 27.383333
16.511799 -1.0909692 2.8480799 29.572405
16.717813 -1.123221 2.8579297 31.129168
16.899391 -1.0979469 2.8445013 26.823809
17.119202 -1.0995687 2.8279457 22.115646
17.245623 -1.0828502 2.8326488 24.041666
17.550266 -1.0887253 2.8500392 24.795637
17.666197 -1.1012692 2.8674219 28.054167
17.890541 -1.0837369 2.8759105 24.092594
18.090239 -1.1075119 2.8569152 27.930304
18.316284 -1.1085372 2.8653433 20.566668
18.529882 -1.0964243 2.8560963 23.533335
18.697771 -1.0993909 2.9067826 26.478333
18.864113 -1.0944618 2.8742096 24.678789
19.102221 -1.0994562 2.8901863 28.436113
19.276527 -1.0969733 2.9060552 29.620131
19.507603 -1.0724632 2.9021943 27.5
19.693138 -1.1049793 2.8828149 25.924286
19.908226 -1.0648897 2.8990691 24.732143
20.08548 -1.1119097 2.8590734 39.919052
20.282009 -1.0907395 2.8764987 27.255207
20.486507 -1.103435 2.8975253 21.583334
20.929079 -1.0893284 2.8928196 33.94643
21.178747 -1.1319743 2.9348652 24.066666
21.256834 -1.1448389 2.9525423 26.333334
21.501654 -1.1031079 2.9394107 21.870371
21.754025 -1.0804708 2.9046645 23.433332
21.900572 -1.0960366 2.9424987 26.055002
22.091686 -1.1058383 2.9340658 27.461111
22.313778 -1.1078682 2.9176562 33.692307
22.532265 -1.0895933 2.9350832 36.944786
22.641369 -1.0881951 2.889384 20.177776
22.869854 -1.0960516 2.9513097 1.875
23.172071 -1.0969527 2.9564915 2
23.221043 -1.0664167 2.9693246 2
24.20154 -1.1809828 2.998857 2
25.105333 -1.0971622 2.9531584 1.9583333
12.136772 -0.92691112 2.8407359 23.666666
12.5556 -0.86456764 2.8204989 23.75
12.694456 -0.86874086 2.9019554 27.6
12.949791 -0.89439213 2.8045499 22.25
13.059005 -0.93421912 2.8202477 23.25
13.46309 -0.91438013 2.8498538 28.133333
13.710082 -0.89312011 2.8433013 27.316666
13.818474 -0.90322584 2.868407 24.616667
14.035421 -0.87988514 2.8113999 37.857143
14.276766 -0.89390445 2.8975654 29.166668
14.42794 -0.89803684 2.9703448 27
14.732781 -0.94194651 2.8479376 24.555555
14.851521 -0.80361259 2.935411 24.6
15.129683 -0.90387511 2.8489597 29.783333
15.24263 -0.89460278 2.8111336 36.972225
15.520732 -0.87807566 2.8272486 26.15
15.633046 -0.89743239 2.8276131 24.055555
15.998854 -0.80198723 2.8370292 37.57143
16.175003 -0.97881901 2.868897 28.533333
16.30093 -0.88666958 2.8273704 30.122223
16.53862 -0.9011839 2.842947 30.235714
16.671587 -0.94145757 2.8538468 27.130953
16.903292 -0.88969404 2.8440132 27.834089
17.101477 -0.90489304 2.8368325 27.073811
17.252161 -0.88015556 2.831892 23.035715
17.526054 -0.92390013 2.8412213 26.1
17.68704 -0.8927179 2.8714805 27.083809
17.90387 -0.88719273 2.8942711 24.494047
18.114357 -0.91797733 2.8589303 28.715673
18.305666 -0.90910673 2.8596885 21.369049
18.498848 -0.90247226 2.8588121 25.720512
18.71151 -0.91638839 2.8944941 26.192593
18.877562 -0.88323253 2.8696783 24.107407
19.089876 -0.89915115 2.871248 24.258503
19.287123 -0.90235937 2.9027629 31.51726
19.506962 -0.87158477 2.9004757 27.6
19.718803 -0.90129507 2.8653758 25.238541
19.927492 -0.89003325 2.8738434 24.994049
20.101519 -0.91691107 2.8609011 36.649525
20.296671 -0.88819814 2.8883929 26.279551
20.421839 -0.84713584 2.8577139 20.666666
20.942574 -0.94276822 2.8741231 34
21.050133 -0.89572203 2.9154291 34.541664
21.283499 -0.91240001 2.9377308 24.516668
21.528463 -0.89391613 2.9449728 20.22143
21.657227 -0.90566415 2.91501 22.799999
21.867857 -0.92312002 2.9381773 25.973612
22.040934 -0.90325338 2.9512198 25.535715
22.310621 -0.91083759 2.9160905 31.922619
22.525965 -0.90419209 2.9492464 52.036842
22.636965 -0.8987053 2.9152868 61.007015
22.869373 -0.9058587 2.9354801 1.3666667
24.240585 -0.88035583 2.8018377 1
24.92345 -0.81649297 2.8943703 1
12.120253 -0.72453529 2.8346138 22.5
12.558675 -0.66875327 2.8208857 23.25
12.728159 -0.67583328 2.9040895 27.583332
12.932646 -0.7285198 2.8002677 23
13.038319 -0.7486341 2.817174 23.75
13.497779 -0.67840904 2.8554366 25.833334
13.733877 -0.69384927 2.846035 22.210001
13.835147 -0.73097306 2.8565488 23.41
14.093154 -0.60865414 2.8050456 31
14.512867 -0.65831888 2.8882811 29.049999
14.858549 -0.69519389 2.8712692 24.333332
15.130872 -0.69587749 2.86409 30.055555
15.292092 -0.70068645 2.8139584 32.642857
15.554652 -0.67882252 2.8278439 22.583334
15.635396 -0.70968264 2.8322589 24.833334
15.944801 -0.64571571 2.8242486 35.799999
16.130636 -0.72832108 2.8857133 24.622223
16.296673 -0.68747151 2.8586428 25
16.500551 -0.70799524 2.8414445 31.092007
16.681366 -0.7365489 2.8508985 27.873512
16.920095 -0.69826615 2.8444965 29.157825
17.121605 -0.72112685 2.8355472 27.208609
17.254761 -0.69842345 2.8361757 23.416666
17.515194 -0.69976753 2.8366191 24.862499
17.712687 -0.70298809 2.8698237 26.396032
17.90556 -0.70147133 2.8903093 24.805555
18.131582 -0.68800586 2.8531332 27.803175
18.28042 -0.68855309 2.8555954 21.88788
18.482452 -0.68804634 2.8537381 21.654764
18.711283 -0.69462794 2.8880107 24.43889
18.898973 -0.70525348 2.8716114 23.407408
19.122101 -0.69974357 2.8764796 23.697435
19.310911 -0.70849365 2.8997273 30.917177
19.54821 -0.6842404 2.8958483 20.625
19.712042 -0.71402156 2.8586485 26.652084
19.909859 -0.71792579 2.8689573 20.972221
20.10523 -0.72936523 2.8591762 36.457935
20.30406 -0.71180612 2.8812697 28.802635
20.454483 -0.67887938 2.9003029 24
21.123379 -0.68266219 2.9625428 33.5
21.30562 -0.73786402 2.9561722 29.983332
21.513094 -0.77046388 2.9272473 22.083334
21.749725 -0.63094211 2.8518243 148
21.891047 -0.72464263 2.9308968 49.790474
22.017733 -0.71232045 2.9362681 23.75
22.271715 -0.7744472 2.9675243 36
22.506155 -0.735053 2.930481 57.083336
22.654543 -0.75549781 2.9171968 130.36667
22.847427 -0.79826784 2.9121938 1
23.967522 -0.69873905 2.9532652 3.6666667
26.276913 -0.67744648 2.8380039 7
26.657503 -0.66023463 2.8398266 17
12.109428 -0.49937236 2.8297145 24.333334
12.555372 -0.47289622 2.8202603 23.5
12.701117 -0.43080673 2.9708121 27.6
12.809707 -0.53441548 2.8401165 22
13.010146 -0.54237819 2.8132656 23.200001
13.506248 -0.47719118 2.8522754 27
13.731837 -0.49778521 2.8480976 25.405556
13.955176 -0.50315404 2.8485978 19
14.13945 -0.44861376 2.8071518 28.25
14.327225 -0.50151873 2.9048877 28.299999
14.489772 -0.47664168 2.8455293 27.441666
14.865856 -0.597857 2.8018134 22
15.115022 -0.44734931 2.8946946 27.458332
15.307178 -0.50547212 2.8115814 30.403969
15.594107 -0.45653507 2.8109233 24
15.644847 -0.50950074 2.8272171 23.142857
15.953711 -0.4955731 2.8264954 35.799999
16.099003 -0.51458097 2.8698273 31.625
16.270285 -0.51073778 2.853368 26.507143
16.517242 -0.52103573 2.8398728 30.414286
16.704617 -0.54627836 2.8587596 29.047918
16.923382 -0.52195483 2.8363996 29.239584
17.119888 -0.54514349 2.8367636 29.561903
17.27564 -0.52290797 2.8314655 24.5
17.526659 -0.53405899 2.8416471 23.833334
17.73313 -0.53700888 2.8706853 27.810715
17.891304 -0.48470333 2.8772082 24.375
18.068525 -0.54558128 2.8864059 31.333334
18.240576 -0.57617754 2.8733766 21.111113
18.428102 -0.55486596 2.847111 25.166666
18.673904 -0.52648091 2.9485836 24.916668
18.880388 -0.50896859 2.9319751 22.75
19.295088 -0.54456371 2.9095676 23.611113
19.533104 -0.52463746 2.9002595 22.833332
19.69429 -0.49684754 2.8434079 55.880955
19.979462 -0.58356881 2.9501171 28
20.062212 -0.51594263 2.8795671 51.083332
20.298479 -0.56352925 2.9077575 27.125
20.616276 -0.49774796 2.9031172 138
21.163139 -0.52133089 2.8348565 94.375
21.267059 -0.49491602 2.9278281 105.125
21.774782 -0.4153184 2.8528931 131.33333
21.969086 -0.45188642 2.8361747 153
22.453051 -0.53791833 2.8794789 22
23.259665 -0.52120125 2.91927 3
23.732746 -0.41988319 2.8023496 3
23.954937 -0.51897156 2.9079406 2.25
24.08651 -0.48416781 2.9263721 4
25.187759 -0.52636492 2.8932691 1.5
25.317276 -0.46311656 2.9133584 3
26.320518 -0.52509922 2.8388398 12
26.565981 -0.541776 2.835397 5.3333335
12.092279 -0.39134181 2.8252695 26
12.711416 -0.24295324 2.9723055 26.6
12.979673 -0.26842514 2.810524 22.5
13.538372 -0.30835688 2.8590806 25.583334
13.672058 -0.34860677 2.8391132 26.25
13.986796 -0.32067308 2.8049765 12.25
14.120358 -0.37196305 2.8092735 27.666666
14.476474 -0.35134885 2.8062413 30
15.118467 -0.28861597 2.8949952 27.75
15.65132 -0.37587476 2.8225067 26
17.347363 -0.316782 2.9165308 17
17.780392 -0.39940518 2.9250259 21.5
18.031633 -0.26618379 2.8012376 106
18.62752 -0.29934627 2.8948567 20.666668
19.241257 -0.36785924 2.8134866 21.666666
19.416529 -0.2625373 2.8012314 22
19.706404 -0.28116816 2.8240001 61.766666
20.148853 -0.29225457 2.9221411 48.666668
20.635733 -0.32712379 2.9042974 128
20.905617 -0.22723541 2.9901934 21
21.153538 -0.32676798 2.8328686 89.400002
21.322981 -0.21586691 2.938293 97.25
21.792574 -0.20170514 2.8532643 122.5
21.985851 -0.35486323 2.8362873 144
22.014034 -0.22228813 2.8374529 131.33333
23.160534 -0.23223704 2.809628 2
23.974617 -0.31582224 2.9551616 3
24.038435 -0.31690288 2.8435705 4.1111112
24.851326 -0.25569966 2.8263099 8
25.293257 -0.30712304 2.9096024 2.5
25.823906 -0.22747529 2.8486037 2
26.326715 -0.30861562 2.8333321 4
26.526506 -0.35746849 2.8267155 4.25
27.71986 -0.23915645 2.8178432 1.5
27.866816 -0.31303239 2.860383 1
28.065739 -0.27460572 2.822134 1
11.671471 -0.12604082 2.8884764 98.333328
15.17422 -0.12034708 2.8254688 25
15.964139 -0.11521424 2.8343899 106.66666
18.036562 -0.056660343 2.8034046 99
19.732613 -0.10930268 2.8294461 46.458332
20.20462 -0.12887435 2.9409964 36.333332
20.638453 -0.12056887 2.9029782 117
21.146967 -0.12286421 2.8323021 79
21.353802 -0.010795541 2.9447088 90.75
22.080309 -0.020754486 2.836108 71
22.397463 -0.091020882 2.8769274 111
22.532621 -0.16642487 2.8983884 150
23.943401 -0.16799012 2.949672 3
24.035322 -0.14241232 2.8789284 3.3333333
24.826042 -0.079573825 2.8233991 6.8333335
25.271542 -0.073737092 2.8950026 1.8
26.494793 -0.12390125 2.8128693 5.5
27.697258 -0.15302911 2.8135061 1
10.894373 0.023097694 2.8061068 26.333334
15.968493 0.05626782 2.8363221 101
18.032074 0.15366104 2.8043048 93.25
18.337212 0.13012454 2.8023777 73
19.160881 0.18988609 2.8023865 17
19.689365 0.10985428 2.814652 86.599998
20.631603 0.084714279 2.9008439 108.66666
21.132164 0.1015382 2.836647 60.183334
21.362038 0.14248842 2.9464626 90
21.787703 0.088394098 2.8498645 107.66667
21.825939 0.18819076 2.8041606 18
22.054823 0.15090828 2.8364921 83.5
22.842314 0.099479765 2.8051481 12
23.260309 0.061006218 2.8719337 3
24.012117 0.081977606 2.8388824 3
24.745777 0.12483875 2.8325162 3
13.164136 0.28757808 2.9775302 22.5
14.34267 0.39225009 2.8102593 133
15.494165 0.25058228 2.8139818 27
15.971597 0.25421605 2.8401043 95.75
18.014807 0.33817402 2.802969 90
18.414291 0.23510981 2.807637 108.66666
19.686594 0.2606014 2.8110623 74
21.099148 0.22293943 2.8002443 56
21.360531 0.35135132 2.8810973 28
21.419077 0.20687896 2.8012676 103
22.632828 0.31853822 2.9070134 144
22.85605 0.2040081 2.8086181 10
23.496819 0.37022007 2.8528798 3
14.358499 0.53607607 2.8112416 126.5
15.945421 0.51861268 2.8367596 90.833328
17.137562 0.57131857 2.8985877 33
17.536665 0.53727001 2.9086797 37
17.956661 0.56823117 2.8283598 33
18.017326 0.50147265 2.8057916 76
18.727308 0.47956076 2.9780469 14.25
18.93255 0.59917331 2.8448095 32.5
19.08218 0.54657567 2.861577 35.125
19.26531 0.56395507 2.840188 22.166666
19.871609 0.58217227 2.8599257 34
20.063278 0.56087047 2.8694973 33.5
20.342239 0.55409747 2.8841341 26.666666
20.463678 0.57001054 2.8924305 32.633335
20.681744 0.54751456 2.9179959 35.150002
20.885061 0.54575425 2.9337246 36
21.118387 0.57091486 2.8729031 33.125
21.292839 0.54722524 2.8977559 31.046295
21.508881 0.50166094 2.9529407 30.479166
21.706875 0.53631288 2.9206862 35.4375
21.934484 0.55398953 2.9501858 22.75
22.10043 0.50959635 2.9201632 31.227272
22.312567 0.51270437 2.9639032 62.231487
22.466904 0.5258953 2.9392965 88.517548
22.682602 0.51219296 2.881813 98.494186
22.944208 0.43812799 2.801316 1
23.070251 0.43541396 2.8895743 1.6666666
23.44503 0.5181762 2.8469551 3
13.126083 0.7469579 2.8959854 28.5
13.876535 0.7481128 2.8693914 22.5
14.378267 0.7363506 2.8141301 110.2
15.152378 0.7745536 2.8104541 38
15.391775 0.75060081 2.8231511 31.5
15.470148 0.78090811 2.8325219 33.75
15.917095 0.77186447 2.8363771 33.916668
16.169922 0.78451294 2.8164372 37.333336
16.255064 0.76436603 2.811527 40
16.528919 0.73237747 2.8397865 29.9375
16.705589 0.72680634 2.8906624 32
16.872747 0.74194872 2.8437693 30.309523
17.116117 0.74630976 2.8467183 31.42157
17.315216 0.74281287 2.8535223 30.566668
17.487183 0.71334976 2.8876162 26.333332
17.720247 0.7107498 2.8337624 30.25
17.927422 0.69853878 2.8690996 27.454367
18.086031 0.72474569 2.8797166 29.858974
18.293055 0.7336573 2.8472414 28.933334
18.468634 0.70938838 2.849303 29.421568
18.69982 0.70617753 2.8720567 28.974224
18.927979 0.71169573 2.8515615 27.336666
19.078463 0.68033737 2.8681238 28.933331
19.25495 0.69608223 2.8584819 21.016666
19.723087 0.73955691 2.9053025 13
19.87125 0.70125723 2.8997395 25.5
20.083879 0.72394085 2.8699124 23.425926
20.28417 0.71327645 2.8541684 35.90625
20.49601 0.68291968 2.8800128 19.01111
20.70048 0.69722134 2.9193766 19.497221
20.888796 0.66559041 2.9193287 21.919048
21.10976 0.70832956 2.9181786 13.093333
21.279366 0.66843581 2.8777597 14.439395
21.479139 0.69769901 2.9054396 11.62449
21.705786 0.69097519 2.9386356 13.783335
21.923903 0.70158952 2.8896592 11.285714
22.11692 0.67500299 2.8987749 12.166668
22.301567 0.68861616 2.9183686 31.262501
22.480324 0.66297871 2.9053869 45.066666
22.695566 0.62552553 2.9170456 88.85714
22.806561 0.63956833 2.8858035 3
23.434099 0.66172272 2.8487113 2
27.560114 0.70993531 2.8110073 10
12.948914 0.96423787 2.8234856 24.75
13.052905 0.87124103 2.8768017 15.75
13.512805 0.96277118 2.846782 25.833334
13.686488 0.91590905 2.8687077 14.333333
13.871216 0.9075675 2.8700528 22
14.088617 0.91634256 2.8087385 31.833332
14.339985 0.94347042 2.8368382 38.96875
14.473073 0.91168773 2.9246459 20.388889
14.7355 0.93726891 2.8918097 22.5
14.925714 0.88329697 2.836731 31.125
15.095318 0.86327636 2.8145893 22.333334
15.369184 0.95031798 2.8148346 12.75
15.489326 0.88019449 2.8264391 25.408333
15.713198 0.88646901 2.8245087 21.535715
15.882489 0.88792288 2.8300958 27.430702
16.118872 0.94515473 2.8417289 19.027779
16.289997 0.85369599 2.8358686 23.866667
16.500553 0.91747439 2.8312829 20.894444
16.691082 0.88011533 2.8464899 21.466667
16.90473 0.88066113 2.8384399 15.881905
17.104168 0.9074617 2.8278513 11.248149
17.281109 0.90016955 2.8394456 18.174686
17.482468 0.86052448 2.8503063 18.166666
17.732193 0.86639553 2.8454342 10.366667
17.91398 0.8823747 2.8590298 10.348959
18.105253 0.87895483 2.8421123 9.2444439
18.332853 0.89005226 2.8515532 10.979167
18.504883 0.90226489 2.8575263 9.895833
18.696766 0.87493932 2.8801932 9.946969
18.907341 0.8736735 2.8530941 8.354166
19.089304 0.85975516 2.8550982 10.233333
19.268169 0.84950668 2.8362346 8.458333
19.736382 0.88544148 2.8328981 16.25
19.909161 0.80599058 2.8783674 10
20.121943 0.86755115 2.874639 8.875
20.270227 0.84544051 2.8330131 34.066666
20.543528 0.82880229 2.874737 4
20.671192 0.84552175 2.9173126 9
20.804153 0.81950641 2.962724 4
21.090359 0.83354867 2.8579814 6.25
21.332428 0.82408845 2.8885069 5
21.449427 0.83634347 2.8595989 21.222223
21.689058 0.90730929 2.930084 7.2222228
21.828568 0.84828985 2.8971953 21.833334
22.085634 0.84913975 2.9207134 5.3499999
22.738279 0.8675018 2.8448448 178
27.488529 0.86343068 2.8137081 7
12.681395 1.0755448 2.9803932 21
12.87999 1.1969423 2.8140099 8.333333
13.125998 1.0251266 2.8964429 1
13.359137 1.0104107 2.8497961 12
13.475195 1.0147414 2.8298757 25.5
13.748508 1.0345442 2.8031251 13
14.086678 1.001491 2.8153551 19
14.315547 1.1195793 2.8182762 7.5555553
14.403966 1.0987707 2.8189907 92.333336
14.60755 1.0991573 2.9413223 1
14.971241 1.110286 2.8208072 4.5
15.160021 1.0103867 2.8044031 12
15.519584 1.0714858 2.8314509 7.1190476
15.687299 1.1551501 2.8426573 2.8458333
15.906071 1.0987011 2.8371942 9.2638893
16.150501 1.0678761 2.8284969 5.25
16.273788 1.0964596 2.8568609 6.75
16.491524 1.0714166 2.8127999 11.625
16.66659 1.0699123 2.8260562 3.5666668
16.881248 1.0563297 2.8273418 4.4166665
17.104214 1.0413725 2.8327081 4.125
17.263912 1.0756869 2.8697586 5.208333
17.409092 1.119719 2.9718649 20.5
18.101318 1.0294166 2.9007907 2.5
18.327726 1.0107149 2.8377104 1
18.665131 1.0798466 2.8973455 18.5
19.729584 1.0599313 2.8137407 15
20.301588 1.1175715 2.874109 17.805555
20.583519 1.1138878 2.8920043 1
21.460419 1.0434155 2.8286006 44
27.296982 1.0630231 2.8078508 4
10.885869 1.3042432 2.8260603 23.333334
14.0302 1.2290646 2.802696 4
14.355447 1.3936419 2.9058828 30.666666
15.255065 1.3812414 2.8225601 14.666667
15.504671 1.2394967 2.835489 16
15.607271 1.2118727 2.8828819 6
15.94022 1.3220887 2.8316278 17
16.017719 1.3256347 2.8181012 24
16.308781 1.2480825 2.8916037 4.5
18.621967 1.2102814 2.9083643 16.333334
20.551867 1.3168471 2.8880167 23
21.469095 1.2286458 2.8350098 17.333334
21.752529 1.2069651 2.8423591 15
14.23992 1.5265501 2.8806586 9.666667
15.271382 1.4782599 2.8342729 6
15.98667 1.511392 2.81304 10.25
20.535225 1.4896032 2.8864038 29.5
21.450285 1.4448118 2.8387797 8
21.666489 1.4910946 2.8299294 22.666668
14.428753 1.7791634 2.8292382 20
15.278834 1.6950898 2.8766775 16.916666
14.390882 1.9262087 2.8235214 1
18.1819 1.9320401 2.9950283 45.25
14.403098 2.1182756 2.8295469 10
18.17207 2.0901022 2.994781 1
14.363698 2.2265677 2.8235221 1
18.167198 2.2166338 2.9977221 12
-3.838064 9.9946594 2.9392936 10
-6.0603361 10.153561 2.9207714 12
-5.8429646 10.11042 2.9122608 11.666667
-5.707911 10.106937 2.9213374 12.616666
-5.547792 10.10672 2.8757675 7.0138888
-5.0952187 10.060078 2.9541426 14.5
-4.9177818 10.080653 2.9064505 15.766667
-4.7199998 10.097462 2.856025 14.233333
-4.4674306 10.087137 2.9141316 9.833334
-4.2823367 10.034393 2.9728181 6
-4.1195841 10.041714 2.970046 9.2857151
-3.920557 10.002762 2.9467304 8.5
-5.8969069 10.216704 2.9490292 11.25
-5.7236032 10.202383 2.9306343 11.333333
-0.3912394 25.766552 2.8388901 14
-0.479074 25.812878 2.8482478 10
-0.91818088 28.454987 2.8100326 2.5
-0.73601973 28.47369 2.8174124 1
-0.5508076 28.500946 2.8259575 3.5
-0.26063275 42.571831 2.9527822 22
-0.1200999 42.558369 2.9561493 36
0.021612048 42.571815 2.9615395 47
20.091042 -2.8173544 3.0085807 4
21.357883 -2.8166671 3.0245333 6
20.166437 -2.6913006 3.0405807 4.9166665
20.884966 -2.6846604 3.0130157 5.5999999
21.349262 -2.6923327 3.0067437 6.166667
21.524109 -2.7180154 3.0387316 5.4444442
21.667645 -2.6578465 3.0160317 7.666667
21.863928 -2.6861084 3.0224419 6.4222221
22.157251 -2.6019993 3.0251703 6
20.928928 -2.5242901 3.0060818 9.333333
21.398369 -2.5703037 3.0043538 9.666667
21.500664 -2.4524715 3.0705326 5
21.729893 -2.5028353 3.0174479 7.458333
21.882584 -2.5854363 3.0382755 10
22.163898 -2.4776244 3.0142274 9
22.603699 -2.4281642 3.0325217 1
20.186853 -2.3690724 3.0008147 7
21.015467 -2.2828021 3.0034976 5.166667
21.509836 -2.3214912 3.0360737 7.2777781
21.751661 -2.2766871 3.0194583 9
21.887466 -2.3023629 3.0194168 9
22.226456 -2.2621641 3.0038693 15.222222
22.500893 -2.3258827 3.017004 2
21.059742 -2.1391795 3.0007074 8.8000002
21.554089 -2.1908538 3.045439 9
21.814184 -2.0140407 3.0140767 8
22.0924 -2.0409155 3.0966101 19.833334
22.279875 -2.0968599 3.0392447 19.25
12.347082 -1.9333143 3.1705399 11.833334
19.397114 -1.8572242 3.0126472 9
21.260044 -1.81268 3.0718966 13
21.641539 -1.9408345 3.0342083 8.166667
22.106659 -1.8708074 3.0913174 19.833332
22.318848 -1.8366693 3.0513079 32.166668
22.499294 -1.8741499 3.0556521 64.125
25.05706 -1.8116331 3.0288126 1.6666666
12.395851 -1.7988386 3.1764596 10.5
12.415423 -1.6751344 3.1747379 9
17.544613 -1.6750293 3.0288577 20.633333
18.983042 -1.6879569 3.0146239 21
19.356089 -1.6012158 3.0386553 23
19.533623 -1.7250004 3.0367756 21.972221
21.307697 -1.6624603 3.0641227 23.200001
21.489689 -1.6836574 3.0644536 18.666668
21.714584 -1.6852837 3.0199125 17.5
21.920273 -1.7133189 3.0094278 24.111113
22.0807 -1.7034788 3.022614 21.233334
22.242134 -1.6594455 3.1463976 32.900002
22.476507 -1.7167583 3.0569954 30.355553
22.644825 -1.7841096 3.0365524 2
23.076332 -1.726367 3.0386546 2
23.299898 -1.7416955 3.0893879 1.5
23.436348 -1.7275323 3.1287203 2
24.013962 -1.6120548 3.0535402 1.3333334
25.085798 -1.6162348 3.0069413 1
12.481688 -1.4139149 3.1831582 16.799999
17.598259 -1.4122137 3.0341911 28.799999
18.767141 -1.5057685 3.00126 25
18.829144 -1.5600233 3.0052421 21.333334
19.006308 -1.5162004 3.0161529 21.333334
19.369795 -1.4617869 3.0389516 22
19.496895 -1.5071312 3.0680566 24.85
19.68861 -1.4787937 3.0473542 19.333332
21.039658 -1.5419105 3.0198092 14.5
21.317234 -1.4616799 3.060533 22.833332
21.520412 -1.4850802 3.0626745 24.025
21.732819 -1.5381118 3.0059202 34.5
21.969097 -1.4563305 3.0130858 25.75
22.115131 -1.4245567 3.0134237 26.799999
22.287483 -1.5154319 3.0785279 33.1875
22.485186 -1.5230592 3.0692184 15.31111
23.081772 -1.5310318 3.0398262 2
23.286961 -1.4992005 3.0830348 2
23.425941 -1.4573348 3.0840971 2
24.042187 -1.5424109 3.056462 2
24.517132 -1.4643334 3.1000116 1.9
24.635784 -1.5232298 3.1280155 1.9
25.066372 -1.5084999 3.0298936 2
12.512372 -1.2204043 3.1828146 25.5
14.522248 -1.3115151 3.0313554 18.833332
17.505873 -1.2935381 3.1510935 22.25
17.624376 -1.221609 3.0358047 28
18.845188 -1.3882954 3.0046475 19.666666
19.043484 -1.3445257 3.0202613 21.666666
19.478544 -1.3191756 3.0614216 23.800001
19.757515 -1.331594 3.0562973 18.5
21.044724 -1.2806776 3.0184484 22
21.328821 -1.358036 3.0611653 23
21.536016 -1.293999 3.0585704 24.416668
22.079716 -1.2289649 3.0098476 27.299999
22.318266 -1.3031061 3.0701778 30.708334
22.498358 -1.30636 3.0951307 55.281246
23.156326 -1.3672787 3.0471261 2
23.224869 -1.2332 3.0794954 2
24.515024 -1.333638 3.1389878 1.6
25.039461 -1.204793 3.0255096 2
12.560693 -1.0115886 3.1881475 27
14.53239 -1.1577439 3.029026 24
17.525032 -1.0361897 3.150295 23
17.661938 -1.0332736 3.0414224 27.200001
18.885239 -1.1147923 3.0067022 21
19.077778 -1.1482155 3.0236464 22.5
19.501488 -1.1291126 3.0645905 24.066666
19.827768 -1.1558442 3.0653126 19.75
20.995108 -1.1589785 3.0052993 25
21.555176 -1.0815177 3.0554721 24.333332
22.144566 -1.0574076 3.0066755 21.125
22.363132 -1.0473065 3.0354612 28.875
22.527487 -1.1025606 3.0777922 88.981247
23.241684 -1.0784996 3.0505524 2
23.484438 -1.1363673 3.0559816 2
12.590803 -0.8461349 3.190125 26.375
17.53883 -0.81823778 3.1510129 23
17.697205 -0.84351802 3.0474753 26.799999
18.931156 -0.8851108 3.0111604 19.666668
19.105106 -0.94809258 3.0261762 20.666666
19.514267 -0.91264415 3.0646 23.1875
19.872368 -0.97198027 3.0701618 18
20.990387 -0.97986639 3.0043604 25.4
21.54468 -0.90007627 3.0952141 21.5
21.603127 -0.83643734 3.0112848 26.5
22.097204 -0.85209483 3.0090833 25.6
22.291679 -0.86248696 3.0220547 28.487499
22.498014 -0.90589917 3.0644996 58.188889
22.609095 -0.93978709 3.1427395 137.33333
23.178141 -0.89419925 3.0375528 1.5
23.24542 -0.87854695 3.0610924 1.5
23.502241 -0.97290075 3.0390182 1.75
12.633807 -0.65315008 3.1946521 27.75
15.503013 -0.70487964 3.0760591 21.75
17.548651 -0.6276406 3.1516597 21.666666
17.724678 -0.64620924 3.0522196 24.75
18.942879 -0.63798106 3.0099518 19.333334
19.09626 -0.77180016 3.0228901 19.333334
19.526947 -0.6971935 3.0743644 22.4
20.983532 -0.78363788 3.0034947 26.6
21.56562 -0.75764221 3.0952115 21
21.603615 -0.64479339 3.0074296 26.200001
22.369673 -0.71678323 3.0370283 31.066666
22.543146 -0.74993068 3.0747108 55.555557
12.654512 -0.51244581 3.1967244 27
15.45787 -0.51928192 3.0620227 25.75
17.542707 -0.46443161 3.149718 22.333334
20.978104 -0.59096962 3.0034955 25.4
21.599457 -0.52223426 3.00422 26.5
22.423454 -0.49731925 3.0748286 74
15.400411 -0.25978816 3.0438523 29.75
20.957035 -0.37857908 3.0007451 23.333334
22.357941 -0.2324104 3.0646749 45.5
22.512569 -0.38546047 3.0976079 102.5
15.370888 -0.08730644 3.0342102 36
22.331141 -0.10200885 3.0613763 39
15.325013 0.10822487 3.021234 38.333332
17.311237 0.089937955 3.1315112 15.25
22.556704 0.37508714 3.1145153 159
22.630774 0.39214069 3.0102403 11
22.833534 0.37636071 3.0456195 48
15.194099 0.42623034 3.1235538 28.5
17.942064 0.56163907 3.0052836 9
18.028328 0.45078319 3.0219982 24
20.332165 0.58820885 3.0651679 22
21.081152 0.58373523 3.110806 18
21.659325 0.55375779 3.0556855 29.5
22.343143 0.51916474 3.0472269 66.462502
22.465746 0.5131253 3.0289223 110.28571
22.699934 0.50400698 3.0673943 52.6875
15.243744 0.70068902 3.1304035 58
18.691422 0.76560175 3.0184734 11.25
18.938404 0.73713797 3.0280292 19.222221
19.120693 0.69762075 3.0291779 23
19.200783 0.72716284 3.0416565 9
20.208002 0.63723272 3.0342062 17.5
20.912889 0.68462008 3.0727627 6.3333335
21.375999 0.61937141 3.0220926 14
21.51544 0.68746555 3.0596707 1
21.671085 0.76778781 3.0921636 1
22.35696 0.68391019 3.0435696 63.366661
22.473831 0.66415244 3.0498514 101.4375
15.259014 0.84106314 3.1321104 4.25
17.527912 0.8884061 3.1563606 18.25
19.070925 0.82069302 3.0281196 12.5
21.765408 0.82536155 3.1117258 1
21.973707 0.92095006 3.0183766 1
20.351622 1.1388111 3.0321832 25.5
22.542496 1.2827431 3.1339931 115.33334
13.456623 1.5701003 3.0631797 24
15.910646 1.4736214 3.1382356 24
13.468298 1.7180417 3.0683069 1.3333333
15.935148 1.6286073 3.1444862 11.5
-6.3355303 10.137533 3.0900307 2.6666667
-4.4599237 10.086246 3.0365415 9.833333
-4.3402734 10.079124 3.0233812 12.666666
-1.0912869 20.636112 3.0293939 4
-0.40312171 30.056152 3.1646619 1
-0.30518723 30.015148 3.1666148 1
22.442514 -2.1350312 3.2073402 128
21.698204 -1.8906742 3.2315905 2
21.833206 -1.8294089 3.2656741 24
16.472858 -1.6730852 3.3466525 3
21.828453 -1.6706176 3.258868 26.799999
22.55051 -1.6470037 3.203835 26
21.847729 -1.5368099 3.2597959 26.5
22.55677 -1.5337639 3.2027063 47
22.584558 -1.3500099 3.2036421 128
22.596102 -1.1196389 3.201776 184
22.613749 -0.97281176 3.2022583 90
26.783913 -0.20723891 3.2164128 1
26.862724 -0.33886263 3.226336 1.5
16.7766 -1.6739626 3.4160018 10
16.820026 -1.5535336 3.4226518 21.75
16.859632 -1.3562698 3.4233897 23
16.899115 -1.1564294 3.4279311 23.75
16.927879 -0.95560086 3.4305437 22
16.959366 -0.75426447 3.4343257 23.75
16.393179 0.16718537 3.4030859 23
16.43182 0.21688014 3.4108005 14
45.504993 -0.51258284 4.2683849 4
45.384834 -0.34638637 4.2543468 4
45.283852 -0.14875323 4.4618883 3
45.313385 0.0060517788 4.466536 3
45.467106 0.94891119 4.5577292 3
45.397339 1.1092553 4.5631962 2
45.372643 0.1020104 4.766839 3
45.353554 0.2693263 4.7682438 3
45.479004 0.30196199 4.6438384 3
45.328148 0.44568872 4.7011046 2.5
45.342659 1.9319258 4.6183133 3
45.15263 2.0918431 4.6105595 1
45.091347 2.2549951 4.6156273 3
57.65834 -7.488277 5.3813076 1
57.838593 -7.7132506 5.4089189 1
58.012093 -7.3398371 5.4043036 1
51.298668 -4.4090538 5.5513697 1
43.925781 -6.1084256 5.7233925 8
43.830261 -5.9644289 5.6970487 4
44.148365 -5.9029779 5.9460459 8
43.793415 -5.7143517 5.8790154 4
51.198582 -4.1867762 5.9931831 3
48.39679 -3.6933043 5.9641533 1
48.110104 -3.5076678 5.9267297 1
47.880123 -3.3215322 5.8504705 2.75
48.82272 -3.3048534 5.8824501 2
47.984009 -3.1419039 5.8815231 3
46.506218 0.11429513 5.8198233 1
46.450943 0.26475015 5.8191452 1
46.328247 0.41452682 5.8094454 1
48.35202 -6.373168 6.1515336 3
43.956749 -5.9314394 6.1788306 4
43.853783 -5.7571554 6.1631193 8
44.49334 -5.7966452 6.1746836 3
58.069481 -5.4901643 6.1489444 1
58.04211 -5.2820196 6.1427321 1
50.871212 -4.5525427 6.0653782 1
51.024437 -4.4191246 6.0799952 2
51.200695 -4.3397298 6.1904345 1
47.734245 -4.103807 6.1562829 3
51.425457 -4.0439525 6.017911 4
47.814392 -3.9601474 6.1612802 3
47.614441 -3.2224984 6.0900116 2.5
47.749405 -3.056088 6.1262164 3
48.748543 -2.9054768 6.0702577 1
48.363113 -2.7636125 6.1394191 2
48.757248 -2.7646141 6.1175942 2
48.085564 -2.506144 6.1196427 1.5
47.878254 -2.3215704 6.0930929 2.5
57.795189 -6.6878905 6.2325535 1
48.813057 -6.3121796 6.2134538 8
49.011055 -6.2026486 6.2350597 8
49.150276 -6.0819354 6.2476726 1
44.412285 -5.8992085 6.255487 4
44.12957 -5.691298 6.208703 3
44.491276 -5.7193599 6.2342472 2.5
44.680199 -5.7054734 6.2924051 1
57.98682 -5.6458549 6.3950958 1
44.509048 -5.5227427 6.2685518 3
44.634312 -5.4251337 6.2867823 1
57.899067 -5.4280586 6.3812766 1
58.166912 -5.4902792 6.3105559 1
57.973602 -5.2400446 6.3348131 1
49.840858 -5.0687566 6.3999786 3
57.895111 -5.1160951 6.3375707 1
57.90094 -4.9499116 6.3030677 1.5
50.493813 -4.6415148 6.3809314 4
50.676159 -4.7242475 6.3643317 2
58.289726 -4.7137599 6.3089442 1
50.384331 -4.4146824 6.2625971 3
50.622475 -4.5053983 6.3962531 3
50.896473 -4.5089154 6.2873917 2.3333333
48.059086 -4.2988153 6.2072687 2
50.917511 -4.318325 6.3859286 2
51.089394 -4.203433 6.3180671 3
51.172943 -4.0454845 6.3294692 2
51.416885 -4.1806102 6.2105784 3
43.735237 -0.27350247 6.381321 4
43.524254 -0.16031748 6.3846698 1
43.773743 -0.15262914 6.3823442 1
43.794941 0.13131571 6.2295103 4
43.967354 0.0079379678 6.262392 3
43.302841 0.79717767 6.3743505 1
43.065807 0.91390049 6.3311567 1
57.810848 -6.0716124 6.5867267 1
45.334667 -5.2789001 6.5367126 5.3333335
49.528034 -5.319479 6.5717812 3
49.855755 -5.2412944 6.4058514 1
