# .PCD v0.7 - Point Cloud Data file format
VERSION 0.7
FIELDS x y z intensity roll pitch yaw time
SIZE 4 4 4 4 4 4 4 8
TYPE F F F F F F F F
COUNT 1 1 1 1 1 1 1 1
WIDTH 274
HEIGHT 1
VIEWPOINT 0 0 0 1 0 0 0
POINTS 274
DATA ascii
0 0 0 0 0.01927463 -0.022253415 -2.288298e-21 1.5171586e+09
0.32493547 0.049351487 0.0092879208 1 -0.02800403 0.019661354 -0.0065834112 1.5171587e+09
0.67345703 0.057687886 -0.002402406 2 0.010002285 0.0086302366 -0.021622568 1.5171587e+09
0.98670006 0.059439618 0.018473126 3 -0.0093991617 0.010837875 -0.014829138 1.5171587e+09
1.2993612 0.065508574 0.041654315 4 -0.0025358577 -0.0026037411 -0.036360864 1.5171587e+09
1.6164434 0.072987668 0.054729566 5 -0.003181603 -0.0014850146 -0.04316745 1.5171587e+09
1.9892915 0.066994227 0.054520514 6 -0.0015540222 -0.0055916016 -0.038071617 1.5171587e+09
2.2927721 0.061735485 0.045222603 7 -0.0025037942 0.015543344 -0.04643758 1.5171587e+09
2.5975673 0.082735747 0.057658169 8 -0.00033096771 0.013746555 -0.056039918 1.5171587e+09
2.9416058 0.078269944 0.097158283 9 -0.0020771159 0.0066725416 -0.056141477 1.5171587e+09
3.2781818 0.070815459 0.061225511 10 0.0037125095 0.0089722602 -0.051292278 1.5171587e+09
3.5849788 0.083142303 0.069237024 11 -0.0073671751 -0.0090851486 -0.070630729 1.5171587e+09
3.9422045 0.061564777 0.11574942 12 -0.033676174 0.031962227 -0.055795375 1.5171587e+09
4.2625546 0.054410208 0.099385284 13 -0.014681344 0.0068214666 -0.056624237 1.5171587e+09
4.6625524 0.038321037 0.099779643 14 0.0025345972 -0.0085992496 -0.073869742 1.5171587e+09
5.062799 0.015577085 0.10699365 15 0.007991869 0.019868486 -0.091189191 1.5171587e+09
5.3679414 -0.017541921 0.11937388 16 0.0029834949 0.017332325 -0.10192169 1.5171587e+09
5.697566 -0.027933741 0.14116113 17 -0.0066999039 0.0033275881 -0.1017343 1.5171587e+09
6.0025783 -0.047364369 0.13594866 18 -0.0030985114 0.012411484 -0.096053757 1.5171587e+09
6.3674226 -0.056174759 0.19065902 19 -0.040207248 0.023421044 -0.096520744 1.5171587e+09
6.7133465 -0.096838675 0.12944973 20 0.0031095187 0.0018200313 -0.11098203 1.5171587e+09
7.0949407 -0.13216794 0.15804322 21 0.0055747605 0.0076530138 -0.11495262 1.5171587e+09
7.3948231 -0.13637587 0.13830034 22 -0.030526202 0.015896818 -0.10893325 1.5171587e+09
7.7429023 -0.17064835 0.16168843 23 -0.028661171 0.020964883 -0.11134735 1.5171587e+09
8.0850801 -0.18236247 0.20805125 24 -0.022433795 0.005680942 -0.12802462 1.5171587e+09
8.3909369 -0.21717519 0.1561161 25 0.01550585 0.0098430291 -0.13899088 1.5171587e+09
8.7430658 -0.25843459 0.20307973 26 -0.013939251 0.018399935 -0.13259751 1.5171587e+09
9.0479345 -0.29019475 0.17724204 27 0.0042517059 0.0058919117 -0.14064011 1.5171587e+09
9.3858204 -0.35740197 0.17260042 28 0.013889741 0.013085037 -0.15993479 1.5171587e+09
9.6903973 -0.40793362 0.19875993 29 0.023681413 -0.0036079376 -0.19357026 1.5171587e+09
9.8041353 -0.37413204 0.19167386 30 0.013489528 0.015396235 -0.095551595 1.5171587e+09
9.8466158 -0.36796328 0.20328249 31 0.011662296 0.0023945021 0.01247004 1.5171587e+09
9.9970293 -0.35430139 0.18968827 32 0.015258765 -0.0043359338 0.11813265 1.5171587e+09
10.057489 -0.35239476 0.20113058 33 -0.0016567083 -0.0043586246 -0.090727761 1.5171587e+09
10.153175 -0.38498497 0.19825892 34 -0.0026579965 0.024429774 -0.17935112 1.5171587e+09
10.458274 -0.41830519 0.27583754 35 -0.0029469042 0.010421129 -0.21816941 1.5171587e+09
10.757728 -0.47109294 0.23854022 36 -0.003345428 -0.0046120649 -0.22645293 1.5171587e+09
11.087168 -0.52950627 0.19923846 37 -0.0061264164 0.020673588 -0.23705445 1.5171587e+09
11.383882 -0.58933711 0.2292089 38 -0.0066380841 0.011961932 -0.23948635 1.5171587e+09
11.426038 -0.58582872 0.18716976 39 -0.0062513617 0.0071714642 -0.18345924 1.5171587e+09
11.616982 -0.60230893 0.24450852 40 -0.014027985 -0.010926303 -0.11867247 1.5171587e+09
11.964368 -0.62835765 0.25779614 41 0.0030825934 0.012188312 -0.042479541 1.5171587e+09
11.987973 -0.63686347 0.26286814 42 0.015241966 0.02093599 0.021941051 1.5171587e+09
12.290361 -0.62378782 0.19576943 43 6.0370323e-05 0.0060618431 0.036181126 1.5171587e+09
12.590769 -0.6288054 0.20639172 44 0.008538574 0.025933068 0.010010158 1.5171587e+09
12.896678 -0.61784649 0.25631168 45 -0.011622655 0.012630637 -0.0050507663 1.5171587e+09
13.209119 -0.61234081 0.23132086 46 -0.0164952 0.0036766662 -0.0084171519 1.5171587e+09
13.532772 -0.62790227 0.24076942 47 0.010125139 0.013778208 -0.0090686921 1.5171587e+09
13.888031 -0.61598045 0.222436 48 -0.023303589 0.0028364318 -0.01472648 1.5171587e+09
14.061413 -0.64504665 0.28370816 49 0.029826257 0.027267635 -0.004204473 1.5171587e+09
14.119242 -0.64169413 0.28775373 50 -0.017489484 0.026700795 -0.10114958 1.5171587e+09
14.243146 -0.6612674 0.27014321 51 -0.015580937 -0.0017898279 -0.16837886 1.5171587e+09
14.599576 -0.70800632 0.31312546 52 -0.01247301 -0.0015476458 -0.18209489 1.5171587e+09
14.758675 -0.7329827 0.25959572 53 0.010465379 0.017210603 -0.0420096 1.5171587e+09
14.81287 -0.7143746 0.27949166 54 0.014286431 -0.0052465284 0.09175548 1.5171587e+09
15.077258 -0.64480335 0.28467289 55 0.0055950931 0.028506299 0.40837514 1.5171587e+09
15.133044 -0.60944515 0.31697404 56 0.052600373 0.0090641845 0.51869333 1.5171587e+09
15.250175 -0.50520915 0.26328954 57 -0.015429753 0.0091067366 0.55314475 1.5171587e+09
15.303367 -0.4844155 0.28580606 58 0.01263726 0.019172266 0.63318992 1.5171587e+09
15.34594 -0.43889508 0.29153883 59 0.020924229 0.036439747 0.83642954 1.5171587e+09
15.379966 -0.40517643 0.28362137 60 0.03084971 0.030003617 0.88878036 1.5171587e+09
15.446269 -0.31499809 0.28416064 61 0.023953425 0.046295822 1.0973325 1.5171587e+09
15.452987 -0.23834622 0.34356201 62 0.068898089 0.038677271 1.1937088 1.5171587e+09
15.471499 -0.16904166 0.27920553 63 0.016266918 0.046008579 1.2191747 1.5171587e+09
15.458587 -0.1598092 0.27924564 64 0.0064233039 0.020627959 1.3016677 1.5171587e+09
15.469702 -0.07231611 0.28266054 65 0.0070426874 0.036533877 1.4003278 1.5171587e+09
15.433924 0.025912976 0.28823906 66 0.0028562099 0.035271455 1.5929579 1.5171587e+09
15.410225 0.085576259 0.26334244 67 -0.0094623324 0.068264514 1.7361414 1.5171587e+09
15.378308 0.097014196 0.30803955 68 0.032038808 0.033722434 1.9637982 1.5171587e+09
15.344198 0.13779825 0.29817292 69 0.04717375 0.052838679 2.3267872 1.5171587e+09
15.307446 0.19504873 0.27235666 70 0.036893249 0.058334619 2.4248486 1.5171587e+09
15.251433 0.18357354 0.27817348 71 -0.0019557602 0.040942673 2.6502738 1.5171587e+09
15.201754 0.19431297 0.30532175 72 0.050824068 0.02866129 2.7112789 1.5171587e+09
15.019809 0.27171439 0.22181998 73 0.003621272 0.076812781 2.7578936 1.5171587e+09
14.931767 0.32379714 0.22272761 74 0.075923629 0.063062042 2.7450233 1.5171587e+09
14.869987 0.28070402 0.28779119 75 0.025609054 0.067058153 2.8026917 1.5171587e+09
14.838021 0.29790425 0.28834128 76 0.037308771 0.049516171 2.9716196 1.5171587e+09
14.769803 0.29772693 0.26799953 77 0.045676183 0.045205276 3.0335031 1.5171587e+09
14.71672 0.29007202 0.2735824 78 -0.0060173953 0.052562252 3.0474181 1.5171587e+09
14.672111 0.28686327 0.28738755 79 0.043933596 0.035378665 3.042403 1.5171587e+09
14.372864 0.32153484 0.24894959 80 0.044400983 0.034167245 3.0430253 1.5171587e+09
13.93086 0.33143002 0.233089 81 0.0089564379 0.03376139 3.0326176 1.5171587e+09
13.672316 0.35216877 0.24201289 82 0.070579 0.055486031 3.0494952 1.5171587e+09
13.313981 0.39602011 0.21694049 83 0.017430119 0.070819721 3.0532422 1.5171587e+09
12.967066 0.40144429 0.21966505 84 0.02088869 0.045663681 3.0360966 1.5171587e+09
12.65841 0.43943676 0.20213357 85 0.037280355 0.043110304 3.0412345 1.5171587e+09
12.305267 0.46223956 0.21796452 86 0.043476313 0.040843971 3.0218985 1.5171587e+09
12.003262 0.49959663 0.21869227 87 0.036892865 0.036166243 3.0092938 1.5171587e+09
11.663239 0.53935969 0.23469138 88 0.04401217 0.05389332 3.0204241 1.5171587e+09
11.339083 0.59299219 0.22817278 89 0.056380209 0.037198361 3.0013385 1.5171587e+09
11.266427 0.53352708 0.23405576 90 0.0080318339 0.052151423 3.0592453 1.5171587e+09
11.2157 0.56247586 0.19803075 91 0.034464441 0.058327496 -3.1016092 1.5171587e+09
11.109045 0.55080223 0.23663311 92 0.024935799 0.049348406 -3.0346508 1.5171587e+09
11.030842 0.57099378 0.18836804 93 0.023487059 0.040790614 -3.1002183 1.5171587e+09
11.008437 0.56658292 0.20470627 94 0.034836419 0.04923116 3.0766857 1.5171587e+09
10.916005 0.55246627 0.21980585 95 0.027898353 0.04450056 3.0217087 1.5171587e+09
10.59627 0.61070681 0.19189154 96 0.031129571 0.039449181 3.0091798 1.5171587e+09
10.279362 0.63307303 0.19972248 97 0.02390145 0.054402821 2.9944837 1.5171587e+09
10.06992 0.65276021 0.15065996 98 0.055824753 0.056822557 3.074595 1.5171587e+09
9.7129602 0.63641393 0.18843724 99 -0.005363577 0.063058615 3.1025259 1.5171587e+09
9.4713058 0.64969051 0.17831028 100 0.045051835 0.049972415 3.0828099 1.5171587e+09
9.1157513 0.67886394 0.1459893 101 0.046616126 0.057997786 3.0878177 1.5171587e+09
8.7312679 0.72535938 0.17188075 102 0.0050737616 0.065324791 3.0181181 1.5171587e+09
8.7246504 0.69123518 0.16442101 103 0.035532657 0.05734095 -3.0462689 1.5171587e+09
8.6800661 0.65801936 0.15283436 104 0.05275172 0.024106219 -2.9081731 1.5171587e+09
8.577879 0.64396173 0.16592383 105 0.031832956 0.031195233 -2.8533401 1.5171587e+09
8.510601 0.58629674 0.18666653 106 0.021965126 0.040196761 -2.9402306 1.5171587e+09
8.4063177 0.58959907 0.12395236 107 0.018783314 0.024819911 -3.0026646 1.5171587e+09
8.0932789 0.54543626 0.17366807 108 0.019481897 0.04841131 -2.9844165 1.5171587e+09
7.7837319 0.48827684 0.16466215 109 0.011491206 0.062011745 -3.017345 1.5171587e+09
7.6098943 0.45365077 0.15201743 110 -0.0096034911 0.043764066 3.1251688 1.5171587e+09
7.56041 0.47092688 0.09808521 111 -0.026046878 0.052254554 3.0028014 1.5171587e+09
7.3816781 0.50543332 0.10656466 112 -0.007881185 0.045442414 2.9424708 1.5171587e+09
7.0742669 0.54852927 0.15875414 113 -0.0013423946 0.046983872 2.9471569 1.5171587e+09
6.7857838 0.57466424 0.067674801 114 0.0028989997 0.036788922 2.9352922 1.5171587e+09
6.4668756 0.64845371 0.082166046 115 0.02188109 0.064747117 2.9458356 1.5171587e+09
6.1088781 0.69840312 0.078567028 116 -0.02901186 0.063217394 2.9417255 1.5171587e+09
5.8551712 0.74596554 0.054601714 117 0.010929189 0.054110046 2.8792882 1.5171587e+09
5.8025713 0.73523402 0.13300382 118 0.029115599 0.061848406 3.106782 1.5171587e+09
5.7342682 0.7375021 0.093880571 119 0.040173993 0.035768978 -3.06355 1.5171587e+09
5.3721695 0.68737328 0.078381464 120 0.039312311 0.04588861 -3.0185273 1.5171587e+09
5.0396147 0.65634286 0.08180429 121 0.005697466 0.058353126 -3.0265298 1.5171587e+09
4.8166223 0.66374356 0.10510651 122 0.011554495 0.056173928 2.9543889 1.5171587e+09
4.8070941 0.6628148 0.12402742 123 -0.02049835 0.07074476 2.8727272 1.5171587e+09
4.7098374 0.68724561 0.070523098 124 -0.0089874594 0.032833312 2.8221414 1.5171587e+09
4.4145474 0.7598058 0.11975171 125 0.00024874759 0.060186747 2.831948 1.5171587e+09
4.1215014 0.81712556 0.029004293 126 -0.014599283 0.035528205 2.8322825 1.5171587e+09
4.0167775 0.80492055 0.099187627 127 0.026319258 0.060919721 3.0605404 1.5171588e+09
3.9701889 0.80985123 0.057450697 128 0.021734372 0.02643851 3.118535 1.5171588e+09
3.6163962 0.77737367 0.077520713 129 0.016916335 0.039106485 -3.1337705 1.5171588e+09
3.306155 0.78901517 0.0691543 130 0.019691359 0.062586315 -3.120965 1.5171588e+09
3.0051794 0.78600711 0.059663657 131 0.01811792 0.02558291 3.139008 1.5171588e+09
2.6529071 0.77772313 0.043708291 132 0.0005010381 0.063318193 -3.1279626 1.5171588e+09
2.3240917 0.77338678 0.020706283 133 0.021311885 0.029868294 -3.1356375 1.5171588e+09
1.9947259 0.76005918 0.0097861011 134 0.0067902785 0.031285785 3.1330318 1.5171588e+09
1.6192298 0.73596328 0.0032096731 135 0.007952285 0.042298675 -3.1398461 1.5171588e+09
1.5298195 0.73537284 0.029230064 136 0.021147065 0.060365308 -3.0814872 1.5171588e+09
1.4547577 0.76751167 0.01646998 137 -0.026975263 0.090185948 2.9443917 1.5171588e+09
1.4185168 0.77393466 0.026464561 138 -0.022218894 0.044110805 2.8310885 1.5171588e+09
1.3690093 0.80710059 0.024997136 139 -0.0048454273 0.040281773 2.7692947 1.5171588e+09
1.3135744 0.79226369 0.0067681349 140 -0.024522834 0.050293449 2.8831468 1.5171588e+09
1.123306 0.78869867 -0.0098951319 141 0.042495538 0.051539343 -3.1256018 1.5171588e+09
1.0705159 0.81224549 0.010831065 142 0.05967601 0.03742661 -2.891726 1.5171588e+09
1.0238745 0.76094782 -0.026763212 143 0.066317327 0.0098561784 -2.8033872 1.5171588e+09
0.93273836 0.71221852 0.014039163 144 0.030509645 0.053538259 -2.7455544 1.5171588e+09
0.64512807 0.57083583 0.0046923165 145 0.029561341 0.030357614 -2.7516937 1.5171588e+09
0.3480559 0.46700555 -0.0097390814 146 0.015909152 0.060239993 -2.7450778 1.5171588e+09
0.034783967 0.30618781 -0.018963253 147 -0.0051693432 0.043024477 -2.9234076 1.5171588e+09
-0.0064086742 0.34248689 0.00066505012 148 -0.0086463392 0.049523555 -3.1362548 1.5171588e+09
-0.061675899 0.35571021 -0.0048849196 149 -0.03437018 0.049727533 3.0774119 1.5171588e+09
-0.33993581 0.42025915 -0.035455346 150 -0.034194723 0.055455212 3.0000854 1.5171588e+09
-0.39285594 0.40936828 -0.0097548692 151 -0.050057609 0.044428051 2.7976143 1.5171588e+09
-0.49493006 0.43675387 0.07339295 152 -0.056229096 0.074607611 2.6792593 1.5171588e+09
-0.48885915 0.45257393 0.0021315129 153 -0.062370844 0.041960042 2.3595843 1.5171588e+09
-0.52379954 0.51595724 -0.003044477 154 -0.057233542 0.02462809 2.2588181 1.5171588e+09
-0.61276823 0.66555309 -0.008325289 155 -0.052089632 0.017530106 2.1620269 1.5171588e+09
-0.65698141 0.71130639 0.028682087 156 -0.059446234 0.035036374 1.8485038 1.5171588e+09
-0.68346244 0.72266644 -0.068065822 157 -0.082373537 0.031310849 1.7414708 1.5171588e+09
-0.71136123 0.81183976 0.030718949 158 -0.073854133 0.0011984945 1.6856762 1.5171588e+09
-0.77854663 1.030569 0.011077398 159 -0.036139037 0.022881093 1.7788315 1.5171588e+09
-0.82623941 0.94131958 0.0081698205 160 -0.027259715 0.061655607 1.8757349 1.5171588e+09
-0.86091208 1.0412939 -0.0050185057 161 -0.011465281 0.015957195 2.1488075 1.5171588e+09
-0.95808583 1.121206 -0.014620288 162 -0.0034507085 0.022281818 2.2508161 1.5171588e+09
-1.1935929 1.4050275 0.046310671 163 -0.032608729 0.068278246 2.3359401 1.5171588e+09
-1.2867306 1.432083 -0.015708368 164 -0.017348245 0.02075812 2.188379 1.5171588e+09
-1.3529376 1.5150534 0.011241285 165 -0.028395317 0.043198988 2.1364527 1.5171588e+09
-1.6048201 1.8288751 0.012683479 166 -0.017211523 0.040894784 2.1116471 1.5171588e+09
-1.8283728 2.1109955 -0.014778053 167 -0.016981861 0.027140828 2.1174932 1.5171588e+09
-2.0213437 2.3739767 -0.0078695454 168 -0.022706512 0.022853391 2.1097779 1.5171588e+09
-2.1694269 2.5076966 -0.0048484174 169 -0.0042130593 0.034396004 2.2352269 1.5171588e+09
-2.2332561 2.5650916 -0.021714102 170 -0.021606766 0.041041747 2.3157542 1.5171588e+09
-2.4528375 2.7275758 -0.0022271567 171 0.023529444 0.045658827 2.4387102 1.5171588e+09
-2.4902284 2.7635448 -0.0063965311 172 0.018098889 0.025675492 2.490073 1.5171588e+09
-2.7620912 2.9351192 0.0082340613 173 0.023213916 0.041264176 2.488379 1.5171588e+09
-3.0809224 3.1526868 -0.016614487 174 0.0032293026 0.012996892 2.4910116 1.5171588e+09
-3.3855317 3.3729413 0.0072444431 175 0.014752086 0.035777789 2.4976044 1.5171588e+09
-3.4965477 3.4309258 -0.0065358514 176 0.019618604 0.058287229 2.6189687 1.5171588e+09
-3.5674312 3.4673855 0.021178022 177 0.054182258 0.020489128 2.7841737 1.5171588e+09
-3.8104801 3.5169585 -0.046366539 178 0.0030430732 0.04928581 2.8420465 1.5171588e+09
-4.0253949 3.6095574 -0.017333731 179 0.043242443 0.043656819 2.9666724 1.5171588e+09
-4.1159105 3.5861678 -0.0020400332 180 0.067687891 0.045180157 3.0992463 1.5171588e+09
-4.1664085 3.5858963 -0.021547457 181 0.036546633 0.031046893 -3.1271763 1.5171588e+09
-4.3439727 3.5700989 -0.01082732 182 0.09790206 0.035458449 -2.8032489 1.5171588e+09
-4.3701038 3.5132382 -0.025089597 183 0.064747542 0.033247951 -2.662267 1.5171588e+09
-4.5387101 3.4048111 -0.042770833 184 0.055110037 0.028490318 -2.5898585 1.5171588e+09
-4.6354141 3.3114166 -0.041460559 185 0.065937728 0.032810554 -2.6422493 1.5171588e+09
-4.6533284 3.3020053 -0.020617329 186 0.072189502 0.046648383 -2.3686798 1.5171588e+09
-4.6679254 3.2695177 -0.015697479 187 0.052152261 0.026657989 -2.2450228 1.5171588e+09
-4.7384577 3.1736798 -0.021841167 188 0.071073048 0.042155918 -1.9942136 1.5171588e+09
-4.7285013 3.1037798 -0.035487354 189 0.057179503 0.040516611 -1.818927 1.5171588e+09
-4.7180262 2.9927545 -0.0027963971 190 0.10130736 0.029066328 -1.437075 1.5171588e+09
-4.6883922 2.9385002 -0.041015632 191 0.081440866 0.008655848 -1.3093975 1.5171588e+09
-4.6249719 2.8770716 -0.022323387 192 0.066267133 0.013029875 -0.96031553 1.5171588e+09
-4.5867748 2.8316207 -0.029255796 193 0.0692451 -0.0048571751 -0.83768576 1.5171588e+09
-4.4594913 2.7475967 -0.057135411 194 0.007628541 0.022495121 -0.74946588 1.5171588e+09
-4.2034578 2.5751805 -0.027483322 195 0.016306104 0.0021097339 -0.7437411 1.5171588e+09
-3.9449353 2.3376508 -0.0309126 196 0.038125206 0.015311894 -0.74619114 1.5171588e+09
-3.6919777 2.1537936 0.005357876 197 0.035693396 -0.0078755617 -0.74805456 1.5171588e+09
-3.4601872 1.9483414 -0.056822252 198 0.030368352 0.035595652 -0.75230688 1.5171588e+09
-3.1866803 1.7119689 -0.018630354 199 0.045006406 -0.0014519655 -0.75355726 1.5171588e+09
-3.0362196 1.6074548 -0.041308187 200 -0.036793299 0.044521853 -0.74880528 1.5171588e+09
-2.9127784 1.5204901 -0.0027261882 201 0.023348292 0.0060401284 -0.75392157 1.5171588e+09
-2.6957984 1.2924812 -0.024719104 202 0.024468366 0.0097058406 -0.75960726 1.5171588e+09
-2.4119029 1.0747547 -0.072286189 203 -0.050295215 0.071320929 -0.74964619 1.5171588e+09
-2.254235 0.96535748 -0.061981596 204 0.026206803 0.029052401 -0.77169079 1.5171588e+09
-1.9944094 0.72818589 -0.0039919186 205 0.050924931 0.013948449 -0.76772082 1.5171588e+09
-1.8378942 0.59602386 -0.048789084 206 0.01524881 0.045268308 -0.6218763 1.5171588e+09
-1.6535522 0.50759041 -0.01020719 207 0.066340894 0.02217518 -0.32627648 1.5171588e+09
-1.5575951 0.48411033 -0.024214923 208 0.085967563 0.020185992 0.11234922 1.5171588e+09
-1.5085024 0.54418796 -0.010891416 209 0.037952054 -0.00082984683 0.28739893 1.5171588e+09
-1.4539682 0.6132524 0.067583233 210 0.061867248 -0.002469854 0.3620654 1.5171588e+09
-1.4290087 0.61705726 0.012841558 211 0.096198842 0.0019869257 0.67447871 1.5171588e+09
-1.447396 0.60811943 -0.0095694494 212 0.085666895 -0.0023887353 0.77522826 1.5171588e+09
-1.2777747 0.68895257 -0.0079507595 213 0.037405532 0.007497557 0.37398654 1.5171588e+09
-1.3018391 0.65098929 0.0035190517 214 0.011155498 0.0059316074 0.056272104 1.5171588e+09
-1.2951982 0.63553572 -0.010050068 215 0.017720645 -0.0097521311 -0.067979582 1.5171588e+09
-1.0137045 0.58824176 0.035244722 216 0.053910814 0.013336875 -0.13759746 1.5171588e+09
-0.69647229 0.56148088 0.022107925 217 0.038683508 0.028843414 -0.15095921 1.5171588e+09
-0.39926791 0.50331306 -0.0068498296 218 0.016172778 0.015330442 -0.13774851 1.5171588e+09
-0.10034027 0.49368075 0.017807633 219 0.020383777 -0.0015319767 -0.14378977 1.5171588e+09
0.27173698 0.47554189 0.017635899 220 0.017733106 0.0054487134 -0.12669358 1.5171588e+09
0.42750069 0.45637184 0.035284057 221 -0.015173732 0.03615097 -0.026400128 1.5171588e+09
0.50526983 0.49101183 0.044477474 222 0.054114018 0.037665311 0.013326124 1.5171588e+09
0.55885249 0.46464103 0.02217509 223 0.046918198 0.015541748 0.22874206 1.5171588e+09
0.63145083 0.50558662 0.039207645 224 0.024366725 0.0049050804 0.29421556 1.5171588e+09
0.84035373 0.53248119 -0.010388047 225 -0.0041908408 0.0098675732 0.36564952 1.5171588e+09
0.99862891 0.68258345 0.013823452 226 0.0062341341 0.011515872 0.12057411 1.5171588e+09
1.086845 0.62645185 0.050383996 227 0.025976809 0.021469451 -0.058399376 1.5171588e+09
1.1947163 0.65251672 0.040663715 228 -0.043481123 0.026794426 -0.18024097 1.5171588e+09
1.2772779 0.62560922 0.015662896 229 0.01169968 0.026017217 0.032246627 1.5171588e+09
1.3360701 0.62255919 0.017300153 230 0.039053649 0.0084313657 0.16755466 1.5171588e+09
1.598772 0.70713824 0.036148585 231 -0.016572585 0.02465919 0.1393808 1.5171588e+09
2.0293694 0.74421966 0.11549618 232 -0.033908557 0.02969585 0.083892718 1.5171588e+09
2.1529338 0.80972612 0.029409189 233 -0.0047176583 0.0032030577 -0.041520514 1.5171588e+09
2.2763264 0.77037376 0.044991184 234 0.0030120013 0.022466503 -0.14797901 1.5171588e+09
2.5836239 0.71687031 0.11538969 235 0.014705489 -0.032856341 -0.21761872 1.5171588e+09
2.745914 0.68725783 0.092509426 236 -0.038195241 0.048880212 -0.19774985 1.5171588e+09
3.020653 0.67867428 0.066976987 237 0.010377447 0.0022574756 -0.23269267 1.5171588e+09
3.1512034 0.72326052 0.086745292 238 -0.017031174 -0.022468612 -0.16420257 1.5171588e+09
3.2265255 0.619174 0.12394825 239 -0.022298951 0.0032718221 -0.46901968 1.5171588e+09
3.2646704 0.62982297 -0.0076152398 240 -0.044932127 0.033795781 -0.64967078 1.5171588e+09
3.3684371 0.50315922 0.11701226 241 -0.045080595 0.037602689 -0.87226909 1.5171588e+09
3.4240012 0.56256479 0.088610023 242 -0.054882914 -0.0094178701 -0.98191851 1.5171588e+09
3.4121084 0.45929453 0.048916887 243 -0.047278821 0.022616515 -1.3205594 1.5171588e+09
3.4192448 0.4551461 0.02654843 244 -0.062138673 0.036932006 -1.4489776 1.5171588e+09
3.4335089 0.43384039 0.075902775 245 -0.042372178 0.0085265599 -1.5127128 1.5171588e+09
3.5002432 0.3883988 0.12701951 246 0.047721405 0.0087149981 -1.4724703 1.5171589e+09
3.6651998 0.37182537 0.073386453 247 0.098781236 0.0070253466 -1.4758024 1.5171589e+09
3.7954438 0.33633998 0.15641299 248 0.037527196 0.036619384 -1.4825857 1.5171589e+09
3.808816 0.22850518 0.03906817 249 0.0055059926 0.017542001 -1.7279449 1.5171589e+09
3.8243887 0.25439069 0.1031921 250 0.0065536834 0.031888757 -1.9713387 1.5171589e+09
3.8158183 0.28218797 0.085534163 251 0.0098978132 0.018777357 -2.0622535 1.5171589e+09
3.7909529 0.2381551 0.045782384 252 -0.033963177 0.050627653 -2.2544935 1.5171589e+09
3.7748594 0.23848929 0.02489596 253 -0.033469412 0.011099937 -2.6260808 1.5171589e+09
3.7801325 0.24973835 0.056024242 254 -0.020923039 0.025189871 -2.7345986 1.5171589e+09
3.7320631 0.20924681 0.067937002 255 -0.039264243 0.032795183 -3.0431981 1.5171589e+09
3.7428825 0.22715271 0.096386939 256 -0.044890005 0.048134144 3.0275171 1.5171589e+09
3.7238715 0.19940422 0.070338182 257 -0.02226859 0.02935081 2.9661164 1.5171589e+09
3.8605833 0.11505795 0.06016884 258 -0.0086640427 0.023279972 2.7519584 1.5171589e+09
3.8719332 0.12831146 0.096257336 259 -0.0086857146 0.025819601 2.632262 1.5171589e+09
3.8747406 0.11243834 0.051123682 260 0.002754695 0.027968599 2.8722005 1.5171589e+09
3.8577251 0.089443229 0.063903004 261 0.007785568 0.031652696 2.9807868 1.5171589e+09
3.8499188 0.081129201 0.082968183 262 0.0037857872 0.026937736 3.0324047 1.5171589e+09
3.9867823 0.041329879 0.093738869 263 -0.057142556 0.042270474 3.0299163 1.517159e+09
3.9856913 0.093015052 0.075025231 264 0.0062861857 0.036502037 3.0266516 1.517159e+09
3.9887681 0.15204164 0.08998052 265 -0.098186582 0.053999227 3.0141225 1.517159e+09
4.0006337 0.28106946 0.077782683 266 -0.02202055 0.020538652 3.0026188 1.517159e+09
3.9924173 0.37082872 0.041418578 267 -0.10562549 0.016940214 2.9807169 1.517159e+09
4.0205421 0.52762359 0.10763454 268 -0.034286626 0.040626384 2.9819257 1.517159e+09
4.0395823 0.6237604 0.082755513 269 -0.11009741 0.049455371 2.995028 1.517159e+09
4.0486207 0.75450879 0.097314142 270 -0.02111333 0.0076317145 2.9908764 1.517159e+09
4.3877406 0.75966614 0.094210647 271 0.010972003 0.024127169 2.9464862 1.517159e+09
4.3833871 0.72896183 0.083615355 272 0.01498284 0.029580055 3.0921614 1.517159e+09
4.388999 0.7141692 0.10539512 273 0.01331523 0.038597856 -3.1007657 1.517159e+09
